5.792917474393745891e+01 5.878058338129514482e+01 5.994527769045841126e+01
5.774940875067508017e+01 5.930254894720721381e+01 5.870896456008185282e+01
5.802330236402091401e+01 5.846330704506252118e+01 5.988765397302979210e+01
5.772542709741701117e+01 5.759557568206691514e+01 6.028982727763929717e+01
5.751596072385098068e+01 5.721055909372066139e+01 6.133221265599922134e+01
5.780287125861561748e+01 5.659567540585427992e+01 6.195309780014800793e+01
5.772015374247205699e+01 5.638661181758639174e+01 6.239752502974673121e+01
5.788224780772068812e+01 5.543972340367832174e+01 6.283104432682140583e+01
5.787557208340030712e+01 5.646603903034051086e+01 6.368457091782288870e+01
5.789271644467029887e+01 5.636636085097809001e+01 6.361772974697618110e+01
5.774372784671149361e+01 5.673727061492820667e+01 6.376922430632719596e+01
5.756908804123812473e+01 5.649599916590641158e+01 6.364440410237535417e+01
5.767840189109867310e+01 5.808821111785654523e+01 6.435926820393636660e+01
5.805063764738314092e+01 5.780518370463649802e+01 6.543451342752889843e+01
5.810305168837325596e+01 5.919188083840329995e+01 6.401402516108767315e+01
5.819923630923886293e+01 5.936564101274641558e+01 6.478048621200609603e+01
5.792288982646122264e+01 5.929243561043729471e+01 6.571781639578699696e+01
5.818287229263772531e+01 5.774325025860022009e+01 6.627977500065446748e+01
5.747570666974227294e+01 5.798907071807506952e+01 6.688686645388816032e+01
5.765799575010625944e+01 5.915733836254996447e+01 6.632105724290833848e+01
5.749552722206888689e+01 5.983908707159821461e+01 6.634067900641335314e+01
5.758724641865919125e+01 6.000839330501996471e+01 6.584029621792430476e+01
5.749847046227177572e+01 6.077791559758614426e+01 6.398137200582644368e+01
5.690968851257957795e+01 5.962726939013076333e+01 6.660241532701662948e+01
5.729166203566003901e+01 5.884222283431585510e+01 6.666110665179624561e+01
5.766428267090476112e+01 6.014467281042981739e+01 6.687618333751089494e+01
5.738122846118643849e+01 6.110759787427564049e+01 6.623914265070952467e+01
5.701632189956395536e+01 5.930191166812004866e+01 6.712317910826376988e+01
5.690638078689071477e+01 6.196723711560760250e+01 6.571260746812295395e+01
5.630262278214473781e+01 5.918332401597871950e+01 6.785319306931161520e+01
5.541547979879730690e+01 6.023919901834103285e+01 6.841860170174021505e+01
5.600128349643856751e+01 6.142129297107972974e+01 6.615039706048172263e+01
5.584024596059050793e+01 5.939022342948579336e+01 6.814423070441273467e+01
5.439331438106486161e+01 6.197249215594848692e+01 6.531634163551322558e+01
5.395015899394462622e+01 6.088857588642226659e+01 6.664052678683806619e+01
5.404560874709380869e+01 6.183825565462581153e+01 6.562808317523439428e+01
5.377051704447090685e+01 6.236115485123754354e+01 6.408220776316936451e+01
5.211526442955673843e+01 6.095859212556493389e+01 6.498393281697741486e+01
5.282321234425808143e+01 6.164339444648602040e+01 6.601636656367159617e+01
5.292214632073041258e+01 6.334352605727864471e+01 6.409649448176556064e+01
5.353382928450815825e+01 6.252816531919709320e+01 6.459666138417176739e+01
5.411935854532345758e+01 6.296402149406864623e+01 6.504238418493363838e+01
5.406861315256416844e+01 6.312961513227890720e+01 6.458873591060061869e+01
5.387829042200671381e+01 6.437450991852290372e+01 6.208994027133938687e+01
5.293750360475501537e+01 6.408936219324112926e+01 6.190441462000957529e+01
5.296330885819578782e+01 6.369503484631091794e+01 6.290369738851079262e+01
5.326414783507139816e+01 6.357566274771659920e+01 6.208229633724389629e+01
5.262176637133672585e+01 6.523548941857765726e+01 6.066832273043301882e+01
5.269108534643756059e+01 6.416025718112288700e+01 6.162883328526605453e+01
5.283499752971408725e+01 6.458318718687264948e+01 6.148944841431032415e+01
5.177385846245224599e+01 6.275105097003743992e+01 6.192467263221105611e+01
5.133428764402444244e+01 6.358085352656324574e+01 6.034343785494051815e+01
5.134915230288408594e+01 6.167002272605796520e+01 6.131997510168054077e+01
5.224991263236402972e+01 6.316064904762390597e+01 6.018116456838522055e+01
5.207606049261315917e+01 6.249042558032113703e+01 6.117600105363140273e+01
5.186721902636124781e+01 6.145713073569854856e+01 5.969161093971271015e+01
5.229524479602384446e+01 6.341041617764250304e+01 5.993632241123645343e+01
5.191081455821380075e+01 6.315037938840707454e+01 5.893074010487102043e+01
5.252048204457901193e+01 6.388248532059255069e+01 5.839319386067097639e+01
5.199107001065727474e+01 6.364144444264113787e+01 5.825652228119686526e+01
5.159737079969464446e+01 6.432371129079422190e+01 5.659683026604503198e+01
5.141939213641866502e+01 6.270665356702591708e+01 5.821538051491033627e+01
5.102790646552011111e+01 6.420411804475847362e+01 5.435706030229150088e+01
5.161064112139181503e+01 6.465460766192039443e+01 5.674513753985367259e+01
5.112976051571389036e+01 6.387987595911396710e+01 5.725402799772260209e+01
5.059705522146711587e+01 6.455297339139839607e+01 5.776375999809650352e+01
5.099470917812507054e+01 6.410279816667068076e+01 5.817869151512086745e+01
5.066268179325515320e+01 6.427301491395776623e+01 5.876215091738249896e+01
5.014024818307509435e+01 6.288862424854246314e+01 5.987995330771306612e+01
5.011451272081088604e+01 6.410583400709040802e+01 5.843179460762367228e+01
4.945573818476098893e+01 6.356143943019360165e+01 6.098710706993217912e+01
4.910689292305042386e+01 6.387763939209862940e+01 5.892103870816232813e+01
4.818607264505463661e+01 6.138637634845175484e+01 6.140065763363155327e+01
4.829756544744474667e+01 6.105296270746740106e+01 6.104322431555119266e+01
4.820295836145582768e+01 6.201238152659297498e+01 6.173243774945934348e+01
4.667872743267544422e+01 5.940450401715962414e+01 6.287049563111487060e+01
4.677294870664757553e+01 6.050237309246681860e+01 6.238674279930034317e+01
4.719709117439216328e+01 6.037846299054618271e+01 6.172932648743687167e+01
4.665520670673259218e+01 5.928957406167445043e+01 6.248305417455053856e+01
4.640335460751031604e+01 5.950099424544640669e+01 6.300080761881477542e+01
4.540972223281526254e+01 5.672882741699039855e+01 6.335534811894536489e+01
4.495311921241868447e+01 5.652309711644809198e+01 6.420788533119844033e+01
4.467626821029515582e+01 5.575063394712142895e+01 6.392526633757591270e+01
4.462220499894183234e+01 5.514093079017403909e+01 6.383772207235568885e+01
4.372270194734298343e+01 5.374968921021771706e+01 6.399397426285675294e+01
4.419619278630359815e+01 5.378378548553952498e+01 6.381609281764731634e+01
4.338075294724360020e+01 5.280543737207250388e+01 6.438664888451020829e+01
4.348294498998836843e+01 5.136104311221043162e+01 6.235872611657655540e+01
4.325726213371284956e+01 5.229529295671405720e+01 6.385787876299955457e+01
4.322250772527488749e+01 5.227551581489136368e+01 6.423559375627311852e+01
4.306784257204557065e+01 5.235241293709173505e+01 6.411197226597207077e+01
4.376652989161217278e+01 5.423666414186789808e+01 6.529063132609574893e+01
4.338527756904525745e+01 5.410923408671966683e+01 6.655838338697006407e+01
4.326429849092987467e+01 5.325939436234784807e+01 6.549533897390429615e+01
4.353731298199740252e+01 5.357904678099247775e+01 6.486734800460985184e+01
4.352396238832704256e+01 5.314164161525424390e+01 6.533771319245532538e+01
4.338590836386782712e+01 5.409537694114227691e+01 6.530052093396078305e+01
4.314319398134748695e+01 5.371155817713358971e+01 6.486298169882284981e+01
4.345561673661372737e+01 5.448715380924323171e+01 6.527348430462446061e+01
4.305611616789983742e+01 5.419872010364721149e+01 6.566185875746862166e+01
4.383578053120700702e+01 5.521621446818596013e+01 6.482801159582660944e+01
4.458995730696248216e+01 5.581336129922225808e+01 6.477948128852519005e+01
4.377209449533778951e+01 5.526517760078948527e+01 6.637826802010792449e+01
4.397022800151346900e+01 5.603869152369836115e+01 6.611203145732872599e+01
4.435035722421022797e+01 5.578940748775789160e+01 6.569230123193095494e+01
4.402398377199056512e+01 5.569265289038103361e+01 6.634021332134140891e+01
4.421859691341932574e+01 5.583551010485960120e+01 6.529304250117581887e+01
4.448998808612722655e+01 5.586520242798199831e+01 6.518024475093844217e+01
4.446072972327547035e+01 5.599131236255407629e+01 6.542913874136971231e+01
4.524508104237200712e+01 5.576239283587784001e+01 6.562241421445368417e+01
4.550620912224885473e+01 5.569098738605408982e+01 6.563929559603138841e+01
4.590230608036370086e+01 5.535307812726539112e+01 6.489973448117031296e+01
4.548849299986078165e+01 5.561980199279711456e+01 6.521261086685387909e+01
4.562179824457982846e+01 5.510113889219648797e+01 6.499074210314230982e+01
4.502985101417709757e+01 5.508679364375779386e+01 6.489414364932341073e+01
4.552212917201340048e+01 5.544568053424407594e+01 6.419906302202350901e+01
4.523217134353362212e+01 5.577035338242599494e+01 6.455677371567499279e+01
4.549504267192186546e+01 5.548080614681077094e+01 6.368942197882185496e+01
4.529390524762812476e+01 5.548214322736802018e+01 6.392142056278738238e+01
4.543454408738673322e+01 5.572904856147565056e+01 6.407245975016202522e+01
4.542461714535806294e+01 5.568461919017796902e+01 6.393552619948321336e+01
4.565850022210903347e+01 5.566069405907803969e+01 6.377896309240126271e+01
4.592659128191218088e+01 5.546712181097971950e+01 6.292177551785585621e+01
4.563078568501737209e+01 5.543190535103842365e+01 6.341790824702092522e+01
4.578680163011159010e+01 5.527380524014358798e+01 6.258590410317727049e+01
4.567593600480305582e+01 5.578004473884740122e+01 6.339765075492970681e+01
4.585724166197954332e+01 5.518002589627960219e+01 6.245371482602816826e+01
4.573477068642766596e+01 5.531685275352373310e+01 6.274164939001984465e+01
4.550923771267142826e+01 5.524447368854941232e+01 6.269306063373638693e+01
4.548160845078388803e+01 5.511838289641297450e+01 6.235713942042031732e+01
4.546647957365297543e+01 5.454047405037866980e+01 6.157330668695788489e+01
4.584373938948704108e+01 5.322390123629335079e+01 5.946138858955846018e+01
4.569214204383620626e+01 5.370400738235917970e+01 6.029516686931317793e+01
4.526329169376725048e+01 5.380173434427273804e+01 5.999630079367138791e+01
4.594793758133817363e+01 5.383236786705362675e+01 5.913990854656849905e+01
4.577731332807250908e+01 5.378979752397815162e+01 5.812771108934260411e+01
4.589099508640061487e+01 5.368736762749522740e+01 5.871685883887261070e+01
4.637770739390572317e+01 5.355967234999393156e+01 5.838322534421602228e+01
4.613031862966828811e+01 5.236419384381821374e+01 5.829767188919371534e+01
4.586630221046215894e+01 5.412999016817553866e+01 5.924253894104108298e+01
4.611589303271443185e+01 5.360004161409291612e+01 5.903093159248328448e+01
4.586275865327161227e+01 5.394161149019678447e+01 5.969553294209674021e+01
4.567453703499177919e+01 5.431570583688053944e+01 5.954207914964103310e+01
4.601999948270483287e+01 5.363780427133085027e+01 5.938602481918240272e+01
4.552403328095269330e+01 5.385811948273025962e+01 5.941292315351852693e+01
4.539631702133258528e+01 5.436345025004585096e+01 6.021761388661301595e+01
4.562974791423951615e+01 5.395021449061905372e+01 5.992264194574067204e+01
4.497143323647654256e+01 5.447443141022944246e+01 6.043173931953982958e+01
4.539778951433351040e+01 5.348650080215355729e+01 5.993048772370318744e+01
4.479578313682691970e+01 5.350814699803760277e+01 6.043286292514155633e+01
4.484973517946071553e+01 5.334039732225430441e+01 6.041368126304718800e+01
4.473103273458683304e+01 5.349957382056716426e+01 6.072512280407391927e+01
4.511456621026184166e+01 5.316163442680193896e+01 6.033006792728558310e+01
4.525528845878083217e+01 5.275250006587144469e+01 6.041166172023160641e+01
4.488629724139325816e+01 5.282202880877453310e+01 6.162504238009470470e+01
4.343325466914865274e+01 5.196563300305318478e+01 6.092642224603970647e+01
4.445104595044652740e+01 5.276770141910758127e+01 6.141795643240050850e+01
4.436072230142510620e+01 5.299224417799401010e+01 6.143465083830940898e+01
4.467036210125727536e+01 5.315213086697783496e+01 6.089712514997576420e+01
4.446955245087040964e+01 5.332719502716677340e+01 6.170603439547831925e+01
4.425202220007790999e+01 5.283805046224129853e+01 6.148550844062642540e+01
4.422888980301056705e+01 5.239298237142865844e+01 6.179826919606281876e+01
4.400463379536956410e+01 5.203638723500439056e+01 6.160113981440925102e+01
4.426482638293173721e+01 5.193236308910184817e+01 6.119413938149988752e+01
4.471188548972285304e+01 5.159555440965370110e+01 6.046926160654513183e+01
4.435642988457879454e+01 5.212266634430575607e+01 6.098530416730307024e+01
4.398134977610440188e+01 5.175801462631066840e+01 6.188779707660512486e+01
4.403845391294612455e+01 5.198521812547112830e+01 6.170605415343985811e+01
4.282271493609624713e+01 5.152351773647078659e+01 6.272841066368462748e+01
4.226393195991128948e+01 5.122694155838568975e+01 6.315644359980868927e+01
4.205784898491784674e+01 5.066993954023129731e+01 6.259974780518735571e+01
4.111469540116776500e+01 4.945046445783366806e+01 6.339377299778556818e+01
4.205311262803522254e+01 4.978965574269567895e+01 6.300908790485779321e+01
4.122131996954107791e+01 4.921962716727006182e+01 6.315552322893310588e+01
4.057693018425241860e+01 4.911430965329049769e+01 6.364105631979187905e+01
4.029260354448744152e+01 4.902035175937020028e+01 6.373163560114483062e+01
4.004296902840101069e+01 4.844642569062528281e+01 6.400460270093473980e+01
3.999164099831274655e+01 4.880165014736071072e+01 6.455464142860975585e+01
4.045303442496960145e+01 4.788605380323372884e+01 6.392385302799056745e+01
4.008897841899855763e+01 4.821401487890118176e+01 6.411730911370740671e+01
4.042389983881473370e+01 4.811305470494760073e+01 6.356417667781287406e+01
3.994290874402297220e+01 4.785010954475109912e+01 6.361389618562266435e+01
4.025318027786506292e+01 4.800706855672106599e+01 6.348798724673613947e+01
4.005478925000595325e+01 4.705770807196896044e+01 6.229354620161834788e+01
4.041852909244764191e+01 4.774568620560638976e+01 6.316251396637044024e+01
4.038263832954124410e+01 4.747085632942715705e+01 6.337409166691804074e+01
4.030863963599190214e+01 4.773062761326393399e+01 6.339628599399745212e+01
4.085251722248457895e+01 4.809721752097929226e+01 6.324751408959899379e+01
4.037302510791310084e+01 4.776603814626612632e+01 6.344590778339325965e+01
4.047719374733042486e+01 4.772536332983523266e+01 6.347036251628244230e+01
4.059873875394501397e+01 4.753500778513163283e+01 6.325657672767233919e+01
4.052318863184375175e+01 4.738032553160974913e+01 6.335912491263227508e+01
4.110561680576817878e+01 4.791979201979258818e+01 6.311135029590190726e+01
4.130107134116766332e+01 4.815970598348295795e+01 6.248619227590552327e+01
4.150842743015560643e+01 4.715081463605037726e+01 6.296048908536924671e+01
3.985002977236870692e+01 4.650469120114382093e+01 6.273397204879755407e+01
4.045717343196183435e+01 4.715624131846600875e+01 6.320309636691978739e+01
4.056028068656193142e+01 4.774484333077459297e+01 6.345786417666845125e+01
4.100732313808101992e+01 4.811877842535515981e+01 6.315737005009805927e+01
4.061014890327430038e+01 4.812619714406287841e+01 6.364924282704433978e+01
4.074303791695226096e+01 4.819392062585647807e+01 6.323121076888073588e+01
4.078311972699784604e+01 4.821844696670194708e+01 6.309995688411405013e+01
4.118412531676042931e+01 4.840531376510308093e+01 6.237394435976635521e+01
4.106733155225908405e+01 4.841232054254282957e+01 6.297074197055477640e+01
4.092387180201338737e+01 4.827869905353419000e+01 6.304031046819776662e+01
4.132060429725098061e+01 4.815512711064724272e+01 6.265898037172881629e+01
4.255601001073583234e+01 4.880486087900433034e+01 6.174825960794423452e+01
4.224507357259470552e+01 4.909045102731303700e+01 6.193963024764566683e+01
4.209729500807252833e+01 4.907200449032576728e+01 6.221325910764043954e+01
4.207934573018667379e+01 4.926317466239062526e+01 6.211565178078343763e+01
4.150853652559479201e+01 4.844397105264372527e+01 6.274128362641030066e+01
4.196395383782400756e+01 4.949318496069316353e+01 6.149683796506770506e+01
4.239073737934472064e+01 5.000637856034285278e+01 6.141169434643938274e+01
4.210376810356828514e+01 5.003181790592679334e+01 6.114996698897872562e+01
4.215933362082368063e+01 5.016552062149173707e+01 6.109304505975702426e+01
4.246045109229375214e+01 5.087047473735508163e+01 5.968237440910377245e+01
4.218468319045526727e+01 5.024063229133280828e+01 6.095126763326023678e+01
4.188096573494287611e+01 5.005901966014013027e+01 6.147883671288822427e+01
4.200088966479757602e+01 4.999770533383634330e+01 6.111240189570746395e+01
4.164450524565282308e+01 4.926364212827275679e+01 6.163638528268413808e+01
4.163587675568189894e+01 4.862731608223798929e+01 6.230427091689955432e+01
4.154280555669943453e+01 4.846024586951337199e+01 6.248481718284133990e+01
4.153835201169592750e+01 4.801430841123936943e+01 6.274228060316514188e+01
4.175741981501574429e+01 4.736955254819749683e+01 6.329644905825367829e+01
4.135862885140127787e+01 4.659510287693544939e+01 6.268357318526199862e+01
4.063855718079130952e+01 4.652252500231668364e+01 6.227442672956356517e+01
4.039427362437835001e+01 4.562108737047012852e+01 6.122929306821381346e+01
3.959837784757510093e+01 4.551079334804586551e+01 6.202697457119460722e+01
4.025382052261915078e+01 4.515241790400663291e+01 6.157924676506634398e+01
4.035952376659355423e+01 4.508161982975873627e+01 6.237463168515374434e+01
3.961543179648074187e+01 4.507641338532654629e+01 6.202671816609895217e+01
3.908817924955749845e+01 4.554033331414325403e+01 6.181000650696397969e+01
3.988554797739659108e+01 4.539819256090143540e+01 6.187227150558945254e+01
3.936562066194465359e+01 4.523208153981834556e+01 6.231325374343721535e+01
3.940917973415153597e+01 4.532335709198171259e+01 6.163331214076670506e+01
3.912402485153702258e+01 4.548331817043502667e+01 6.205272739032155727e+01
3.941638899981516175e+01 4.536583485717599729e+01 6.141871278617502838e+01
3.929182329645652061e+01 4.518034520072067295e+01 6.046311888694697956e+01
3.919098320352280496e+01 4.506423561554016288e+01 6.022332133868027171e+01
3.925802126998322450e+01 4.500487935974974363e+01 5.974828031533033368e+01
4.054827448777040644e+01 4.504544647549288072e+01 6.059242583683123229e+01
3.933780425780492607e+01 4.466788737479083693e+01 6.055240992639333086e+01
3.923501895724419342e+01 4.493095458751736970e+01 6.048627027410305601e+01
3.845429717957250659e+01 4.471698859369077894e+01 6.000019117063921925e+01
3.894966470961530547e+01 4.493649621499616131e+01 6.016412150020189387e+01
3.892223310045061879e+01 4.465817098964903664e+01 5.996367861535445343e+01
3.904298540020832320e+01 4.433063221678445132e+01 6.062884950616185620e+01
3.975808194299117559e+01 4.496459660191857921e+01 6.032567758917421230e+01
3.933282868819118505e+01 4.423576627702833974e+01 6.042259338587751216e+01
3.892598076060995282e+01 4.459932100916159214e+01 6.043672314146073177e+01
3.951720227917179074e+01 4.420821732782806635e+01 5.970734293521519476e+01
3.990700189277878707e+01 4.431208455170159510e+01 5.906924742427992214e+01
4.024210672056747740e+01 4.447284685913200519e+01 5.926325273098759538e+01
4.060886159848583077e+01 4.435743373121384536e+01 5.926966566551689652e+01
4.114717028182749203e+01 4.454972083609288092e+01 5.909948863663186813e+01
4.172898291261952863e+01 4.459445433448833995e+01 5.809331104841520954e+01
4.128920916057489165e+01 4.424431479031565573e+01 5.837058773897472719e+01
4.123532994364926196e+01 4.428721662385279245e+01 5.845334427531810917e+01
4.173935825518118037e+01 4.435809320074080375e+01 5.768782534997406941e+01
4.235350193777826888e+01 4.435139324029334773e+01 5.726412798875449539e+01
4.341943431040631651e+01 4.539799743048115488e+01 5.623444352529604373e+01
4.355798728575740597e+01 4.502042070375822647e+01 5.678669763271875581e+01
4.351882129551896128e+01 4.515701250647274634e+01 5.703449151413889240e+01
4.362212238583909851e+01 4.515029121516779043e+01 5.744859569179098457e+01
4.351066018603848562e+01 4.495018992501110233e+01 5.714963960823441624e+01
4.415462809900098762e+01 4.475500348048927890e+01 5.756493840140104368e+01
4.351523390767079036e+01 4.489921636909554081e+01 5.720979537537042603e+01
4.401517348204423996e+01 4.476453824335736442e+01 5.737128821754176045e+01
4.343849634865524934e+01 4.461131128226597298e+01 5.743152884640544897e+01
4.410112055581508628e+01 4.420648120253496671e+01 5.770876175582729672e+01
4.341593999852221231e+01 4.415394833329498425e+01 5.797932033322095435e+01
4.374960500052496570e+01 4.431871056823791122e+01 5.762579108884551005e+01
4.411423317721525450e+01 4.416779420321361727e+01 5.755414341851767546e+01
4.422884928134099169e+01 4.403873088887903009e+01 5.752267559035401945e+01
4.456551883778476508e+01 4.401497002995071028e+01 5.753218872419500940e+01
4.549715201954167298e+01 4.382603101939682233e+01 5.762976377815790130e+01
4.447271528216785441e+01 4.473812993622490097e+01 5.667470723137930122e+01
4.430343406831455866e+01 4.424454880918941768e+01 5.727454394623669032e+01
4.385091342910794765e+01 4.464502786938479062e+01 5.671628208485953593e+01
4.398236856663340433e+01 4.418736118206881258e+01 5.761217186516253008e+01
4.325453966759280178e+01 4.396806863247876151e+01 5.740313170107707208e+01
4.384209889326092480e+01 4.426202635771183935e+01 5.736014938330058754e+01
4.308929807487759689e+01 4.456130151114228255e+01 5.696803470976888661e+01
4.207092116758365563e+01 4.445363445950453496e+01 5.660294443608859893e+01
4.216333475679594756e+01 4.466662972913289309e+01 5.648864987748815736e+01
4.226868162999267042e+01 4.521386013658712244e+01 5.588510752997791542e+01
4.169608218705907632e+01 4.501349915613005948e+01 5.613159915420129664e+01
4.180294803040057872e+01 4.477897021906790798e+01 5.663713822645019746e+01
4.176323340033442122e+01 4.526090439770626261e+01 5.596851103235209735e+01
4.226384712316080794e+01 4.518089255987170816e+01 5.592243616367428416e+01
4.150492453139451499e+01 4.520890835591426793e+01 5.616487096492148368e+01
4.153707699954220089e+01 4.537459114818688732e+01 5.590138819361926892e+01
4.156308812110177087e+01 4.549749393506418471e+01 5.577958975575652545e+01
4.146812593898311405e+01 4.557282170654886500e+01 5.571519667952303934e+01
4.163356855548396851e+01 4.546308119978267825e+01 5.576008835845119904e+01
4.161094559999467890e+01 4.492183864109868097e+01 5.643975610020135036e+01
4.207098176330176642e+01 4.566797001100161424e+01 5.524908655737407770e+01
4.161808571882612995e+01 4.527198031641179199e+01 5.587179104789319695e+01
4.172628033072540177e+01 4.567648002986684475e+01 5.549720570845286716e+01
4.155375141710257481e+01 4.541709017950172012e+01 5.578734613099084072e+01
4.208421983187415805e+01 4.506006550998871063e+01 5.582133077011796018e+01
4.145438435030099811e+01 4.506511446629232864e+01 5.591890229422879344e+01
4.161098330675398671e+01 4.553742906654566980e+01 5.562702411461098961e+01
4.109730488968843076e+01 4.501050578674035307e+01 5.591259835803973033e+01
4.116342947360261917e+01 4.499945596288722527e+01 5.572167499263683510e+01
4.082506043290876363e+01 4.452530178318201592e+01 5.593684891256672387e+01
4.052865375024326511e+01 4.462991225857561517e+01 5.607113712405644890e+01
4.085758677974595798e+01 4.508947903659305467e+01 5.589212772923031025e+01
4.075532250971023984e+01 4.448632977700035696e+01 5.607427320150653571e+01
4.054841919029581732e+01 4.474235975310158864e+01 5.570703409123211713e+01
4.043966778936650996e+01 4.440379824643805051e+01 5.612562835037700637e+01
4.033534624211063147e+01 4.345307007552666789e+01 5.650951056150959317e+01
4.079774126243587062e+01 4.390328402205388869e+01 5.634505066462333644e+01
4.079410059591046434e+01 4.344109921835971022e+01 5.653907306451094428e+01
4.030510573795962870e+01 4.293075450578464114e+01 5.696074539480841992e+01
3.984220351892663103e+01 4.261523016127098629e+01 5.699903949426872174e+01
3.975767556661568136e+01 4.248561642366255597e+01 5.705953666842151506e+01
4.025320138356578781e+01 4.327148892284760251e+01 5.676168305092718924e+01
4.013332582737204746e+01 4.253287330709952840e+01 5.710558070992587432e+01
4.011060512627835095e+01 4.205536605525231408e+01 5.706502961450276246e+01
4.013620429550405788e+01 4.243820553862919809e+01 5.669680105709386453e+01
3.964314261756902624e+01 4.207307356823881150e+01 5.670830590426133710e+01
3.932728455643839283e+01 4.197541218945688257e+01 5.707642260474306539e+01
3.902553874654465460e+01 4.149956015974396450e+01 5.688581430557047725e+01
3.913601359861958429e+01 4.175543311579627925e+01 5.723902368705508792e+01
3.936299209043648517e+01 4.219513096698121046e+01 5.701731173421661225e+01
3.910885654628033592e+01 4.155109579678934040e+01 5.703987326350149090e+01
3.915216907997476881e+01 4.158094309271437794e+01 5.694641378626594985e+01
3.912406673360355569e+01 4.180435555793511071e+01 5.691186515660345435e+01
3.904221738209858472e+01 4.125799693553224756e+01 5.697064257606565008e+01
3.917796282959231036e+01 4.147927798837282154e+01 5.671704673931936469e+01
3.939038258006707593e+01 4.075963773307034188e+01 5.671019882165745685e+01
3.958029261892072270e+01 4.087291473878818948e+01 5.655924779561795646e+01
3.950273901623278050e+01 4.082333890315888425e+01 5.624597481400346766e+01
3.959302137168192104e+01 4.145249171666246468e+01 5.633668669118134176e+01
4.396440017998810568e+00 1.533742366090183751e+01 8.030212000827133068e+01
3.929311148619978411e+01 4.091493885202361014e+01 5.569327652584286170e+01
4.810327902842090886e+00 1.311589288990061242e+01 7.988346498521521255e+01
3.995822777617379984e+01 4.067172674199917282e+01 5.608179664775252604e+01
3.982036963595460577e+01 4.066952851862404827e+01 5.626833697141476875e+01
4.048414127469819590e+01 4.046113126721685660e+01 5.628234514390435095e+01
4.064146227246185106e+01 4.027056248653444470e+01 5.658820939193488897e+01
4.069745450995559821e+01 4.042429118543577715e+01 5.622027983602607293e+01
4.134136571340404487e+01 4.049675767066304388e+01 5.657762485283088694e+01
4.150305674951624724e+01 4.110108969755904695e+01 5.651803206400501978e+01
4.160234142654311995e+01 4.045599680495125483e+01 5.588425101438924969e+01
4.148241896273241025e+01 4.057718391550067594e+01 5.663132654722459591e+01
4.173693184879831364e+01 4.034420384786417202e+01 5.648030227451426555e+01
4.237903141414265207e+01 4.040964013533008625e+01 5.661348118178493394e+01
4.212248816609180579e+01 4.049947508418981101e+01 5.665602121682788805e+01
4.262934030094520210e+01 4.035501672319244193e+01 5.674747021718984996e+01
4.255575329369611381e+01 4.063107878064385403e+01 5.670353305371293118e+01
4.278727620868939852e+01 4.095102959674621701e+01 5.658682262776277128e+01
4.314909123462159357e+01 4.117695446062070630e+01 5.634728865248764151e+01
4.344474546162160067e+01 4.161304117531226154e+01 5.614057172537917495e+01
4.347620845316858151e+01 4.145239031539593100e+01 5.618899799246354831e+01
4.347675318660066068e+01 4.154549156785215303e+01 5.615251686744523596e+01
4.374970067909927707e+01 4.166874953136497339e+01 5.590459903109976381e+01
4.375650608210161607e+01 4.232339292725365709e+01 5.615775955102841266e+01
4.386328485160071011e+01 4.165965088325277321e+01 5.594121706775089109e+01
4.457704047015627680e+01 4.190167597562110302e+01 5.572042474532486267e+01
4.481512340709124231e+01 4.159996820732510514e+01 5.544883950383505322e+01
4.519641101326654820e+01 4.181919725531850673e+01 5.521187303364607146e+01
4.479081581986351068e+01 4.154034326126782872e+01 5.541314278043871155e+01
4.498531604428451658e+01 4.148862506593901145e+01 5.507427633493111330e+01
4.438826433253466064e+01 4.089441738698296547e+01 5.480169600745582414e+01
4.580707261148253906e+01 4.119946024671197193e+01 5.414972429497149875e+01
4.565307399624735751e+01 4.092339189696733825e+01 5.446100778814016508e+01
4.598801768028416603e+01 4.111690884448312744e+01 5.393283341757639704e+01
4.607305073045299082e+01 4.124511542387148211e+01 5.385460022674510583e+01
4.630477837952070530e+01 4.142848939075370396e+01 5.376267206766183193e+01
4.666842942967146257e+01 4.175850476260156086e+01 5.358575290403602054e+01
4.748027443868837594e+01 4.273998710382135613e+01 5.347047711613689813e+01
4.775271571589825470e+01 4.362753182336208368e+01 5.361029335001934726e+01
4.791070654415980101e+01 4.426532971864217103e+01 5.328074678624557947e+01
4.797839793934215180e+01 4.396758443376317160e+01 5.381896973273153861e+01
4.776479772845634386e+01 4.359520701193459757e+01 5.391653280633430967e+01
4.853834072202121774e+01 4.469431223731155711e+01 5.269087869650724798e+01
4.832207854627392862e+01 4.437240399393448342e+01 5.357144306890685215e+01
4.836378329883982730e+01 4.444134901749621491e+01 5.350661332876724430e+01
4.905266741401946007e+01 4.486934944455180840e+01 5.340596627073590952e+01
4.950878609359894256e+01 4.534151559517800933e+01 5.350644292754999753e+01
4.970341660705047815e+01 4.551104714954470154e+01 5.352746503773864362e+01
5.001659356756596964e+01 4.615495428540347689e+01 5.261774292540157205e+01
5.034059606355110361e+01 4.624679089635668561e+01 5.318737902710053334e+01
5.047972217772918668e+01 4.656377910381964114e+01 5.309730988712455968e+01
4.994095377436999428e+01 4.653682452990167917e+01 5.250849996835869860e+01
5.012829280522783648e+01 4.649083416788771927e+01 5.282084713086812400e+01
5.012918593669724743e+01 4.627299719848205228e+01 5.331229447845152691e+01
4.953486421240285864e+01 4.604379878816688887e+01 5.297013549339963134e+01
5.032788670358474548e+01 4.645798471908991445e+01 5.337163091071875698e+01
5.003397788876016961e+01 4.653769464895086827e+01 5.283413495339297583e+01
5.075214596272414980e+01 4.698065768415770549e+01 5.193354487510288919e+01
5.075445775398802084e+01 4.651977638596014231e+01 5.143695316081760893e+01
5.088435043898189747e+01 4.685416383315844513e+01 5.108533367238245404e+01
5.073827427438625648e+01 4.707091123335735006e+01 5.118189449306686356e+01
5.080880382438364506e+01 4.726581008693227659e+01 5.109032179477080859e+01
5.022746898168115592e+01 4.691941355558456195e+01 5.084414127371512393e+01
5.047014437912142881e+01 4.744905974950895455e+01 5.014257333953767670e+01
5.076163618045856651e+01 4.618715172813128333e+01 5.135131666944286621e+01
5.230882791940714327e+01 4.559473715399297333e+01 5.169240409576934780e+01
5.345169628406258511e+01 4.408545143611411987e+01 5.266182886424545018e+01
5.385380931015244954e+01 4.385618040694389919e+01 5.247527725513570118e+01
5.360673614591803471e+01 4.401373408815232580e+01 5.238435211692245730e+01
5.390492618248326551e+01 4.344364675221344640e+01 5.259248723027089056e+01
5.413466804042499803e+01 4.328179555584539884e+01 5.251347552671388286e+01
5.426580353622789232e+01 4.280529604503787766e+01 5.263013942588717242e+01
5.453306035601676172e+01 4.282684695337734126e+01 5.268115594159181114e+01
5.460264351848339714e+01 4.279571365727736065e+01 5.260047768697973680e+01
5.472792469446536501e+01 4.268330028466506576e+01 5.269129308289474523e+01
5.461287820181230757e+01 4.257907237168555525e+01 5.270192121776219096e+01
5.455010950765337441e+01 4.255801898835447616e+01 5.269899597434190497e+01
5.449539272968382875e+01 4.228692878969231828e+01 5.299246968298595561e+01
5.449407917327084760e+01 4.232646043617405951e+01 5.293809877736227776e+01
5.429318302063042978e+01 4.198891868653930004e+01 5.316028085422978933e+01
5.410984567614615059e+01 4.207668159962263843e+01 5.314372526356128645e+01
5.422263512030212240e+01 4.195245137530847046e+01 5.318198553805784456e+01
5.423084234642836066e+01 4.192104778383903607e+01 5.324152763499681384e+01
5.428885485021201163e+01 4.185839915176941872e+01 5.331575540101654553e+01
5.418390620479598851e+01 4.194958575132059764e+01 5.328650806897683623e+01
5.399593305877808547e+01 4.217524412296765490e+01 5.356863663813658860e+01
5.377648518338128270e+01 4.235408193264283483e+01 5.371284043594567947e+01
5.371678276977603161e+01 4.229457706642373438e+01 5.371132421468929863e+01
5.334402795854327195e+01 4.251121071723456879e+01 5.379281253662690432e+01
5.361025062534186247e+01 4.235409833142332303e+01 5.368465085511432733e+01
5.361806452321726368e+01 4.238859491958651660e+01 5.369190132572476415e+01
5.365200371792665379e+01 4.235077365640523794e+01 5.361246450836353716e+01
5.362004841485320839e+01 4.273114308593555677e+01 5.289609308834377543e+01
5.372953467454825471e+01 4.237313438812102362e+01 5.353744990818411509e+01
5.385637991783998046e+01 4.227141474963794820e+01 5.341495277862365754e+01
5.377119369911360991e+01 4.232394190446945714e+01 5.359625331399369230e+01
5.401020523753405200e+01 4.206070186827088264e+01 5.356293481127170253e+01
5.420988666374427112e+01 4.193321416350978836e+01 5.357406578530121521e+01
5.407976076724818881e+01 4.197356380030293366e+01 5.363561548931215128e+01
5.421716489984299159e+01 4.185003274501988102e+01 5.373544439430357045e+01
5.412534927424449194e+01 4.191143725461714098e+01 5.364167728920271827e+01
5.410022828800371286e+01 4.186494353427080028e+01 5.385341707015219725e+01
5.429597421931917012e+01 4.173430409489802173e+01 5.360684936821105140e+01
5.451485732579612886e+01 4.163999039063746466e+01 5.359383969782555823e+01
5.435963785357175482e+01 4.180448066048111144e+01 5.355715554362463138e+01
5.405233525717768117e+01 4.190354875971843995e+01 5.375112109941738936e+01
5.429326317119997469e+01 4.163150575844955625e+01 5.386090673847348143e+01
5.457557020923820090e+01 4.141781625305792147e+01 5.381998015537295288e+01
5.449474504352349413e+01 4.124696696217711889e+01 5.412356480687166282e+01
5.467313251144781816e+01 4.094345857637522101e+01 5.417895895964272768e+01
5.479107237047006862e+01 4.074272509675488863e+01 5.410779658802533731e+01
5.468005382713710105e+01 4.070369711454283390e+01 5.415168740185877283e+01
5.479397080934464981e+01 4.024899445943136556e+01 5.416062937790096754e+01
5.497170288038146424e+01 3.995760361775561620e+01 5.422292580515031091e+01
5.496937321356531214e+01 3.972289238617642582e+01 5.417181527630987148e+01
5.506713802760288701e+01 3.977234986768071678e+01 5.418350299835453399e+01
5.492696566741970798e+01 3.953101854481465693e+01 5.421955824546797231e+01
5.519727959712947296e+01 3.950588319994759701e+01 5.415789667821051268e+01
5.560334658767970240e+01 3.921438761934933837e+01 5.388860039297335902e+01
5.543860486720043923e+01 3.956082719758284583e+01 5.397369246782189123e+01
5.587494463645914067e+01 3.978241906729761723e+01 5.394791909401214980e+01
5.613615074664954818e+01 3.955447587180663049e+01 5.366886737545409147e+01
5.576418976436855246e+01 3.958901365477269252e+01 5.386808640101317280e+01
5.602881455035758762e+01 3.931392471283984236e+01 5.354211831511832997e+01
5.629138848206294199e+01 3.883670725386689782e+01 5.331339280450573881e+01
5.652244899595417849e+01 3.887439062682463486e+01 5.278329645515743351e+01
5.660870823531350737e+01 3.824986612866790381e+01 5.284188484967629051e+01
5.696120355208093855e+01 3.797347502916434081e+01 5.293198931203760083e+01
5.708311853979906658e+01 3.831606586926787372e+01 5.238323715869513819e+01
5.714119742581458894e+01 3.839678245978056026e+01 5.179712417149377046e+01
5.725506608934033181e+01 3.826990973302926591e+01 5.198791211247705490e+01
5.753528472558412687e+01 3.798018524465467749e+01 5.172184943014261194e+01
5.719879977805007343e+01 3.815458636972045525e+01 5.168336810463411979e+01
5.717028479684932307e+01 3.834302578896529212e+01 5.161590091428026739e+01
5.721293493616770576e+01 3.893928126709579374e+01 5.126073095056028706e+01
5.709361006857230336e+01 3.868842799282507627e+01 5.113308219639252172e+01
5.673137020895428151e+01 3.902916791589926504e+01 5.100982149229431428e+01
5.655150119362632211e+01 3.914031829659379724e+01 5.173864376668478826e+01
5.696266954607775546e+01 3.903056609551524758e+01 5.106926412280220973e+01
5.695323220777427764e+01 3.908886257989583157e+01 5.088494333554681504e+01
5.703152665536815391e+01 3.931194832494210090e+01 5.045328343571519270e+01
5.708106858912126569e+01 3.945153438002714097e+01 5.027684835022545684e+01
5.717848158653511348e+01 3.977919978341781615e+01 4.969329875604162794e+01
5.702928399144566640e+01 4.016543419003932058e+01 4.974801028496145960e+01
5.719076519177227169e+01 4.035184513589677380e+01 4.928061042670172753e+01
5.726547135446763548e+01 4.040391622279431516e+01 4.914646935336327260e+01
5.706480637098762543e+01 4.055711368653923188e+01 4.897361004328143252e+01
5.704005479821227453e+01 4.072349857640459447e+01 4.895218606337503786e+01
5.761339701848203987e+01 4.071985756129208767e+01 5.003182154563043582e+01
5.775952523974032005e+01 4.068383289005701187e+01 5.025588869650354695e+01
5.768460856543248383e+01 4.093181633339258241e+01 5.045534577142367993e+01
5.803968263497016977e+01 4.084578898010769876e+01 5.067943630875399919e+01
5.825658788844508962e+01 4.073236722922708708e+01 5.094017726034740434e+01
5.830640170234666186e+01 4.073428827012200060e+01 5.126123827441970349e+01
5.832366595956636246e+01 4.078914936536362035e+01 5.171970006470315440e+01
5.821018050798905819e+01 4.089810435896736607e+01 5.184465285798154355e+01
5.824796101715367058e+01 4.046680337241562597e+01 5.247477440049301833e+01
5.805389231156443941e+01 4.023549349682105714e+01 5.264368506005543225e+01
5.809159549492082419e+01 4.036692376281931871e+01 5.253246484179266673e+01
5.803651264036792412e+01 4.001930396382405064e+01 5.298857956537386116e+01
5.807092612184301572e+01 4.042720578628423311e+01 5.290908182634452572e+01
5.772663982679033268e+01 4.057044385211577975e+01 5.342190080005455854e+01
5.751326281620895031e+01 4.038247415381994898e+01 5.392830030595773394e+01
5.723431643771476018e+01 3.970992253543265349e+01 5.548258518834652619e+01
5.513208593569604687e+01 3.865676019146368247e+01 5.567943816776585209e+01
5.458538496559621933e+01 3.824489700546018867e+01 5.636662688304965485e+01
5.487327255717178787e+01 3.828048133298865707e+01 5.635635090994865948e+01
5.466730180171418851e+01 3.816545631737565714e+01 5.619734559637718974e+01
5.503480908951434003e+01 3.848317410792843418e+01 5.630904069522625832e+01
5.431277116517726000e+01 3.829428063460652965e+01 5.624111200803947952e+01
5.442949206048000121e+01 3.820620059474097019e+01 5.645122241744436309e+01
5.515323670110662846e+01 3.864847405506600353e+01 5.595872860217774303e+01
5.303057570029683632e+01 3.833112758034570788e+01 5.636666365185341476e+01
5.371892432755258540e+01 3.790610198259520303e+01 5.651653432443083602e+01
5.426223527644315681e+01 3.814799300122670900e+01 5.648154459176696918e+01
5.409839287482452619e+01 3.796830762590912656e+01 5.635075130059140491e+01
5.369513656065327467e+01 3.773538726027533130e+01 5.597850083494795115e+01
5.315380789092794345e+01 3.771540026770328780e+01 5.594883725105404437e+01
5.189351527290602206e+01 3.747745688773731843e+01 5.642781566194710052e+01
5.270748834393918969e+01 3.798878499762315641e+01 5.575475094144050558e+01
5.205032507571409184e+01 3.858070173818376247e+01 5.534638799343902349e+01
5.107890250296703982e+01 3.825990930024254055e+01 5.427841186000144091e+01
5.059581516576481874e+01 3.763677759506695253e+01 5.417468630298377974e+01
5.184204724152210275e+01 3.795339517038159016e+01 5.345534196394687143e+01
5.189616778142313080e+01 3.938110853225176555e+01 5.291882091987721992e+01
5.133878413833186016e+01 3.813721854208840512e+01 5.346637507374975939e+01
5.062219820607527510e+01 3.767750717969935437e+01 5.409054612035198062e+01
5.121648486928216926e+01 3.804449987281947188e+01 5.419583723498661953e+01
4.986684771081621648e+01 3.719455375085826887e+01 5.422001368299707025e+01
5.190000740887702335e+01 3.703017552171021265e+01 5.424438615394193164e+01
5.064138300853620933e+01 3.695668003899614718e+01 5.440384538846453921e+01
5.062775572169211102e+01 3.596949384493113655e+01 5.345669539829206940e+01
4.985026801462593227e+01 3.664695448405516487e+01 5.412130273196504504e+01
5.072685223967531698e+01 3.662457542664543553e+01 5.407311238426846245e+01
4.820736851550294944e+01 3.681039663280454022e+01 5.426375596082652208e+01
4.971970654346549168e+01 3.671735106021327510e+01 5.348403306861129636e+01
4.944544800829454090e+01 3.667888116733638526e+01 5.374210426265059937e+01
4.994006171317744247e+01 3.664278419364303119e+01 5.267878937565167519e+01
4.896517838163431691e+01 3.669391559918293666e+01 5.261204453799715708e+01
4.926033062967412945e+01 3.683754743663131137e+01 5.243971904105928417e+01
4.960422229578111342e+01 3.750868885965235222e+01 5.255531959138302511e+01
4.905252249741307935e+01 3.882078766246890922e+01 5.115056381530254015e+01
4.859222830103014701e+01 3.732735795463631945e+01 5.281580159959293042e+01
4.803496589284146268e+01 3.708019428702414189e+01 5.283557670417236096e+01
4.832868715438252849e+01 3.674893943375325733e+01 5.339568932340147001e+01
4.725936684652709374e+01 3.681710676304951591e+01 5.385768951774697655e+01
4.901238265583378251e+01 3.696617289143851792e+01 5.362850117243628034e+01
4.869406203085363671e+01 3.604846990917818772e+01 5.374296366378358414e+01
4.838089150553786055e+01 3.653892351661190219e+01 5.358484958724382352e+01
4.962195238570711098e+01 3.647174777598805662e+01 5.359533673602449966e+01
4.879480156527985457e+01 3.668684744066440118e+01 5.385048159606790819e+01
4.908484491185830478e+01 3.595115632839775799e+01 5.308215101876444209e+01
4.653392601845184373e+01 3.649275711727610627e+01 5.372695043901268974e+01
4.752315039567529453e+01 3.598554102426943757e+01 5.369273687556609076e+01
4.732062745871686360e+01 3.676273863423820387e+01 5.361967863924165556e+01
4.541712049868230139e+01 3.720786728907194174e+01 5.373362030081406004e+01
4.534785515817797830e+01 3.711565945097394348e+01 5.361999567725021620e+01
4.414024869781942328e+01 3.762421900144745734e+01 5.358399973602639932e+01
4.619379832207826553e+01 3.660201477095422007e+01 5.341510566206680011e+01
4.611541546010668213e+01 3.682097946831495250e+01 5.334298647718701858e+01
4.729950788695199293e+01 3.627579298822172404e+01 5.309967869908354032e+01
4.794471940537825105e+01 3.645936559716830061e+01 5.253513866138705879e+01
4.846693989745195097e+01 3.583556665609915370e+01 5.200739586483688015e+01
4.826876270497118071e+01 3.554800339599065495e+01 5.216349123932852905e+01
4.846558284753481871e+01 3.609452627552097681e+01 5.194209492553345342e+01
4.975204332270434548e+01 3.570391211673827314e+01 5.128992361306871572e+01
4.977474852742256672e+01 3.565490276608898768e+01 5.087847384675157514e+01
4.979182177186437741e+01 3.561485275718151655e+01 5.100363198127259778e+01
4.931595633334870143e+01 3.601452584484167829e+01 5.087596136853536422e+01
4.991859513761670541e+01 3.524576737460577647e+01 5.096551330446013139e+01
4.995633028151616628e+01 3.507030134814580435e+01 5.087709352212694114e+01
5.070012123861764763e+01 3.384209663291411374e+01 5.071794084498995403e+01
5.118298428625811880e+01 3.378842601675150803e+01 5.017327038865968802e+01
5.142984154627930593e+01 3.323324967391619822e+01 5.034262226309333244e+01
5.156157433283390645e+01 3.284538504004229509e+01 4.986143873317539743e+01
5.163277527604108741e+01 3.350176029029123015e+01 4.989529396320052967e+01
5.172966474670671033e+01 3.363620352781440914e+01 4.976170204995868573e+01
5.144143250400090750e+01 3.410961330662730262e+01 5.027920785173300544e+01
5.178401926843049097e+01 3.403263222697101753e+01 4.919976897559669737e+01
5.255089298431802547e+01 3.399860543372955135e+01 5.021392462622253561e+01
5.160514645564391856e+01 3.396429167286349582e+01 4.944496360222101572e+01
5.173126129434739084e+01 3.398999609239992736e+01 4.909463466823183353e+01
5.215678947495226936e+01 3.414481594433648581e+01 4.860937445425310699e+01
5.202061711438282998e+01 3.451399262037930527e+01 4.730105461459038452e+01
5.175043329750913301e+01 3.405778777386021261e+01 4.670456520277069501e+01
5.214544797552245825e+01 3.387231475094008459e+01 4.620224516169967188e+01
5.107640561490663345e+01 3.423196162164443734e+01 4.682628733436160928e+01
5.128537924826018468e+01 3.417332188089370248e+01 4.638724923706438119e+01
5.160403488820221440e+01 3.419561333952686510e+01 4.507727752096851503e+01
5.149710361577702855e+01 3.416863339868258009e+01 4.468054678195522200e+01
5.225808951322526497e+01 3.519692789767357510e+01 4.358637831853947375e+01
5.275713934327077936e+01 3.589631923025951465e+01 4.283846586671767653e+01
5.261293692994558313e+01 3.598119876577150222e+01 4.345806398933811465e+01
5.283879706535969234e+01 3.615153593008135147e+01 4.299667068959153227e+01
5.404720445895053871e+01 3.548961532207055569e+01 4.311286473394007146e+01
5.302859372336543231e+01 3.649399023475565684e+01 4.274613439013372584e+01
5.311709987293706092e+01 3.662981704223527402e+01 4.276073091064075982e+01
5.246591444129833093e+01 3.700605389410753077e+01 4.310365791173659744e+01
5.300303499186561140e+01 3.702038924089252703e+01 4.294663388610997856e+01
5.277330957957428126e+01 3.715795752460918777e+01 4.290669572836826973e+01
5.262563701610876166e+01 3.729524535165957388e+01 4.317811716368722585e+01
5.200029214876853700e+01 3.748374073720651722e+01 4.333954588414887610e+01
5.249781700849902677e+01 3.779414417793666559e+01 4.303404289805614269e+01
5.261405229805293970e+01 3.726823028010804251e+01 4.303015442484247899e+01
5.320106869912906689e+01 3.673900471313081084e+01 4.305815566683939721e+01
5.293883680649520329e+01 3.665191281829793724e+01 4.325325229994891174e+01
5.320700743214396056e+01 3.662320597675694955e+01 4.340532607390929343e+01
5.309459946986640233e+01 3.651276688446938579e+01 4.359581295060959860e+01
5.300038127668459254e+01 3.653380570355383838e+01 4.334370335175042754e+01
5.338390364383162989e+01 3.638479078510019349e+01 4.338813933213355511e+01
5.392203993980005805e+01 3.646299277929589522e+01 4.382055247738233561e+01
5.468963857268423112e+01 3.667917116447717518e+01 4.433038555725708108e+01
5.535385426040372892e+01 3.669083093619442337e+01 4.485246967871194101e+01
5.597945330973381317e+01 3.666123133446912163e+01 4.524592790058537872e+01
5.605549390532743104e+01 3.644979531903567249e+01 4.502812185437893788e+01
5.616531291198668185e+01 3.655763765481709981e+01 4.515296498503626310e+01
5.605784618103780303e+01 3.639757831585539805e+01 4.499519313503293461e+01
5.618805405539543329e+01 3.699787326898186990e+01 4.564620208593000683e+01
5.655274582014868656e+01 3.704316146832071155e+01 4.578781221481352048e+01
5.699658483779049334e+01 3.739283121223638773e+01 4.623040455896116896e+01
5.701148041183525805e+01 3.673620049234876461e+01 4.576623745152353706e+01
5.705109144188929093e+01 3.704581966882569333e+01 4.601118061883646249e+01
5.711572721449170587e+01 3.710945354771804006e+01 4.607595168286255216e+01
5.683086964649797324e+01 3.724928716184166433e+01 4.611179817144781623e+01
5.727669858570777706e+01 3.745521773151611455e+01 4.632969832457936121e+01
5.739169963254469309e+01 3.784854831823360399e+01 4.662727013031832968e+01
5.734157064373582813e+01 3.808588226093478113e+01 4.675602922939906847e+01
5.736515888063640745e+01 3.831600387123655338e+01 4.693364674848966445e+01
5.753100423852944090e+01 3.831426340747042758e+01 4.696231680100244432e+01
5.774321581779264534e+01 3.815818235667737923e+01 4.691365664490955112e+01
5.724911621796014316e+01 3.890518139380846918e+01 4.738000020856728867e+01
9.891405952692487347e+01 2.757149504848637744e-01 3.529168699141687426e+01
1.000000000000000000e+02 0.000000000000000000e+00 3.328929297439321999e+01
5.778672467985531114e+01 3.856074381722719124e+01 4.684909767105263256e+01
5.808837029981295075e+01 3.812740555317582647e+01 4.659453544260499314e+01
5.801507716721434349e+01 3.799388620257343518e+01 4.625438913282504672e+01
5.796017423198639307e+01 3.811458927332920865e+01 4.624137542870747097e+01
5.809510720727096356e+01 3.789572507647478261e+01 4.561163674472892637e+01
5.779549154185652782e+01 3.818219921299317576e+01 4.551677996027913764e+01
5.771219218270898921e+01 3.812996824291207076e+01 4.547383507273629988e+01
5.752103797052531320e+01 3.798024979635462017e+01 4.450315336059816929e+01
5.735664327165859078e+01 3.822324978701033871e+01 4.497609722168517976e+01
5.752152581548092058e+01 3.829226141897603952e+01 4.538018505379804424e+01
5.718861045937586596e+01 3.844288185680775172e+01 4.406091520566160824e+01
5.719180665556371679e+01 3.944253506234753104e+01 4.446949568942321207e+01
