3.502215673483175351e+01 3.431303560635276284e+01 6.276069189859682496e+01
3.403784475581304036e+01 3.348910122783422594e+01 6.337491460885978967e+01
3.246248110038451529e+01 3.141106896634348544e+01 6.455068170214373424e+01
3.125576038680119595e+01 3.045533520928371018e+01 6.526312339559763132e+01
3.061006944261459495e+01 3.008232109168717017e+01 6.559016997351893963e+01
3.045107234507452887e+01 2.980693588859729815e+01 6.577021981788519156e+01
3.046041656016626220e+01 2.976851245071818752e+01 6.580323455101580521e+01
2.922577559575950090e+01 2.852855361000915480e+01 6.660081987284291927e+01
3.042288812854479119e+01 2.984856809756457707e+01 6.582792194351237924e+01
2.936624429345755161e+01 2.920088023763554474e+01 6.650543820499187575e+01
2.990907198998313987e+01 2.964896869487689202e+01 6.607726319348341804e+01
2.938691726880634292e+01 2.978731773847428599e+01 6.630524328172323578e+01
2.410415716743840164e+01 2.651465255982560265e+01 7.068496981198127571e+01
2.380367900057267150e+01 2.615307796787654482e+01 7.094346212323576140e+01
2.447627436504587095e+01 2.683209713538071028e+01 7.042956689981500062e+01
2.399367179246077697e+01 2.653682572879806045e+01 7.087402174762938500e+01
2.379588506246465940e+01 2.750879942385947174e+01 7.153534248579657628e+01
2.329888263962801531e+01 2.690031240695086012e+01 7.177026832619901597e+01
2.235161109927207690e+01 2.636064442977346189e+01 7.271497696819298540e+01
2.142341734200503112e+01 2.615205353284128975e+01 7.363964870592219825e+01
2.031461742870220633e+01 2.587073459088105665e+01 7.479459551121942695e+01
2.018511072604096057e+01 2.660523366750074814e+01 7.520307904978648139e+01
1.770917416344768114e+01 2.541795556776724752e+01 7.758524379683886707e+01
1.884093049892558369e+01 2.652825495112555743e+01 7.676421925729705720e+01
1.648475913752183075e+01 2.683853690166848338e+01 8.007313993182745548e+01
1.438908323973773129e+01 2.361869289526376647e+01 8.422556897216689720e+01
1.245083795167456486e+01 2.461097256003148814e+01 8.634232996629050660e+01
1.180903420055493314e+01 2.370371613302149427e+01 8.687107895703698546e+01
1.248954562667540635e+01 2.472929552928141916e+01 8.619793562389583030e+01
1.279753971279514779e+01 2.486867635322463599e+01 8.777185546005613048e+01
1.343147828141306732e+01 2.427806931306648863e+01 8.794737009606213007e+01
1.433701020631897016e+01 2.403407201207710031e+01 8.873512470939235186e+01
1.507307442534548159e+01 2.275866371252582354e+01 8.855005787496565972e+01
1.790211056957557645e+01 2.252451463999556225e+01 8.811574158608117102e+01
1.521419761358738043e+01 2.384193258731149712e+01 8.848230640006937620e+01
1.770035597485860279e+01 2.796306807587255960e+01 8.561845674810408013e+01
1.673372434388457108e+01 2.862152495379753603e+01 8.673102819505523087e+01
1.573235059551547188e+01 2.778660507918257849e+01 8.666129730446445478e+01
1.748889231832305313e+01 3.124545836748206185e+01 8.493924313478429156e+01
1.850633838589617497e+01 3.482890432928056157e+01 8.346366195166412183e+01
2.050144597733250151e+01 3.647765697990364941e+01 8.212711555228828786e+01
2.081184954190831249e+01 3.745964263886750700e+01 8.188334695069649172e+01
2.241097045615517303e+01 3.841964846667873701e+01 8.029601518525618076e+01
2.491953013080144075e+01 4.084526333434991585e+01 7.940597003977921986e+01
2.849631913795975535e+01 4.289373445942238305e+01 7.622494566737937305e+01
2.980160662808807004e+01 4.455071418660282490e+01 7.596953224082983525e+01
3.034067122563324048e+01 4.454816526374625596e+01 7.523001233898462203e+01
2.967781963149427327e+01 4.457363025241323840e+01 7.632665068245803752e+01
3.143013643489939213e+01 4.621402186471313200e+01 7.550363057584792159e+01
3.092096242198780587e+01 4.547328305734957610e+01 7.576397709968382799e+01
2.897652627914281354e+01 4.472724366110289651e+01 7.799582410518294751e+01
3.071048500141019133e+01 4.589256671125787079e+01 7.645112476989146444e+01
3.184654820938003184e+01 4.656365879727727020e+01 7.523900945920665606e+01
3.217140198046116950e+01 4.650288651930640071e+01 7.471868820917798359e+01
3.350829823216902525e+01 4.736499094201099069e+01 7.345928368805853381e+01
3.363703289040086730e+01 4.796684030615677585e+01 7.380760297262044389e+01
3.711629889382840020e+01 4.932403968133211691e+01 6.990327993458974731e+01
3.459412743163527182e+01 4.937744363673130721e+01 7.413349581126691135e+01
3.544527586432031541e+01 5.008291588191386978e+01 7.357465406103567318e+01
3.472120188703157595e+01 4.988238956267840507e+01 7.436399827858703304e+01
3.383739616276708517e+01 4.951108924221829000e+01 7.560632864986304469e+01
3.448761310148579184e+01 5.023218670619020543e+01 7.564251260821592382e+01
3.429244441789764153e+01 5.052341488046285889e+01 7.629507408577902083e+01
3.519680799679285599e+01 5.063617144324256714e+01 7.490652069750156272e+01
3.508412305946943377e+01 5.056202529329393514e+01 7.462304869557414122e+01
3.538377660314310447e+01 5.239474926581558378e+01 7.641326591801313839e+01
3.474464724264004900e+01 5.388330963871469237e+01 7.928754054544262431e+01
3.844683948512395943e+01 5.434863644896265811e+01 7.422836400214255548e+01
3.677115294466834428e+01 5.517743934835610986e+01 7.795463167991714215e+01
3.669388793745810773e+01 5.495163273655117564e+01 7.796048023688689455e+01
3.714929794600744373e+01 5.619444211514252174e+01 7.897931899505150000e+01
3.609152500260658059e+01 5.758805107444034377e+01 8.194878388199106212e+01
3.770735183304614679e+01 5.858794650557162953e+01 8.078010352014030104e+01
4.043094385485554199e+01 5.919310056215918792e+01 7.743132848789201716e+01
4.031055304518614690e+01 6.045373943737954647e+01 7.781833219635363719e+01
4.268167056559308747e+01 5.979649370276730735e+01 7.550815597393777523e+01
4.291705416872210321e+01 5.937878580085894242e+01 7.494671700372731493e+01
4.305909272268866772e+01 5.922262106241765878e+01 7.480162529316856990e+01
4.517919869734247129e+01 5.762986704310525710e+01 6.929311744235805293e+01
4.388652993498457278e+01 5.952854726037629973e+01 7.398361600465572963e+01
4.352865468477098432e+01 5.945886319702401579e+01 7.462748846790566404e+01
4.291548570860929601e+01 6.037827341605090226e+01 7.653451295875174765e+01
4.300691771784867257e+01 6.122221802694541992e+01 7.756032812347899608e+01
4.227087828625180066e+01 6.094594234958051970e+01 7.855538347411609834e+01
4.237554341908880673e+01 6.071997831398445555e+01 7.800621141476607079e+01
4.350536350896962290e+01 6.189201080498424545e+01 7.813310960965281993e+01
4.199728527173604675e+01 6.259149418774991602e+01 8.085069167766337728e+01
4.223699241436565188e+01 6.331016461831263342e+01 8.151708085517851998e+01
4.078375062401477180e+01 6.302786601246364029e+01 8.255993192391130719e+01
4.128611321445549720e+01 6.361475006787885889e+01 8.321005918797744982e+01
3.880844445317300284e+01 6.470263172070647784e+01 8.698172732348690772e+01
4.087770606423594444e+01 6.579879613058365351e+01 8.628490391649444291e+01
4.280854983655424206e+01 6.516491635070738653e+01 8.380888838809227082e+01
4.025676942326875007e+01 6.555479607915384577e+01 8.709617402644327910e+01
3.761657760779768722e+01 6.622843788280334820e+01 9.017712397072006070e+01
4.378546691567004956e+01 6.869008616028708047e+01 8.685610214617730662e+01
4.579197284659347389e+01 7.537280781075712355e+01 9.346545414846551125e+01
4.660163842641807008e+01 7.463876573291082650e+01 9.176594180385531274e+01
4.642674603221176710e+01 7.402621752430212609e+01 9.111119111980875118e+01
4.545284058602281618e+01 7.620069607466834327e+01 9.580136967592686403e+01
4.759635008441440363e+01 7.881369497465885843e+01 9.745848795313980872e+01
4.772400111756424934e+01 7.881685370324522921e+01 9.606924399357612288e+01
4.906903819393821919e+01 7.848575046674616829e+01 9.664236067974873379e+01
4.746495288480851826e+01 7.647950338261448167e+01 9.531884156610496461e+01
4.893428623721688808e+01 7.997203814405241928e+01 1.000000000000000000e+02
4.917861436983096013e+01 7.834458414451061969e+01 9.982657543330186911e+01
5.346910385104925467e+01 8.037708754746772399e+01 9.896297037570431598e+01
5.477503832679679618e+01 8.177408569590787124e+01 9.952465647004663651e+01
5.243432391506821943e+01 8.021999591509397476e+01 9.982028517955431823e+01
5.595194077580238456e+01 7.972236347247807942e+01 9.435491194606767351e+01
5.473865761344205794e+01 8.081514212032803357e+01 9.608978766551896911e+01
5.625865613353266070e+01 8.128676202927981365e+01 9.664818212624204818e+01
5.677608772038873752e+01 8.206138519179928892e+01 9.722697615805017790e+01
5.796267859444988346e+01 7.960022093134271870e+01 9.681779137256597778e+01
5.880574781043750932e+01 8.055921116930612413e+01 9.204369247310140167e+01
5.891014154263217506e+01 8.090104386254942881e+01 9.295848542079504284e+01
5.959265190353337971e+01 7.839788329666889410e+01 8.780152465136488615e+01
6.199346748376817118e+01 7.861370559803314961e+01 8.352046668705148136e+01
6.446552429160125541e+01 7.699567272188964751e+01 7.953374873026524483e+01
6.609115163810861304e+01 7.727664165856245404e+01 8.025163105873744485e+01
6.612133293332335882e+01 7.711916631234923614e+01 7.855582773562348109e+01
6.671400603152231668e+01 7.714324460145589057e+01 7.970448745825508752e+01
6.671247827180634715e+01 7.689808626286227877e+01 8.014287942170429346e+01
6.768201362194395188e+01 7.607580937480969396e+01 7.995065422724118775e+01
6.922146273711956610e+01 7.669739975521453346e+01 7.802677088643135050e+01
6.816665197542097587e+01 7.580549473060730747e+01 7.849033142926634810e+01
6.916679462446437299e+01 7.594843450121300066e+01 7.810643294133353720e+01
7.027912822508187674e+01 7.426476557143681134e+01 7.723452876200586559e+01
6.731782307329733328e+01 7.614965297877402861e+01 7.727452957498934438e+01
6.310139550228210936e+01 7.344981435827332916e+01 7.219115113435657349e+01
6.720783522808274313e+01 7.858064408018057634e+01 7.557719914614686729e+01
6.749274977831193212e+01 7.944096177773188572e+01 7.527320766826061060e+01
6.638469755797528649e+01 7.583740134528217425e+01 7.234732354768877371e+01
6.653998413320024952e+01 7.859449262216207899e+01 7.235451041701966801e+01
6.622683083267722282e+01 7.764118390215877241e+01 7.290087986703228751e+01
6.634885989160119379e+01 7.604269162948362748e+01 7.216245307918519813e+01
6.622333615239659821e+01 7.524318290662088771e+01 7.131100235563182821e+01
6.581283237459626889e+01 7.323088227570842434e+01 6.974690626666827598e+01
6.463321876626261542e+01 7.142387518883231223e+01 6.818842022364982824e+01
6.464061873377637824e+01 7.416186346852211386e+01 6.630778637245259688e+01
6.380464199271040115e+01 7.002540213852037709e+01 6.571861014182307770e+01
6.411181852932874392e+01 6.959545813905911871e+01 6.564693921673085697e+01
6.175114134330704729e+01 6.670579722549977930e+01 6.431282723717619376e+01
6.245950359410809938e+01 6.992246108321253928e+01 6.254717826649230261e+01
6.059277830060064218e+01 6.706037649106018250e+01 6.167739524714417598e+01
6.000479937851822854e+01 7.256640327921800804e+01 5.664901501176039744e+01
6.221222265632339798e+01 7.229958687572911913e+01 6.013063858064278122e+01
6.100038675921489784e+01 6.832327114938172485e+01 6.128952741491730194e+01
6.431808375526769339e+01 7.272495197939927891e+01 6.300643139743892363e+01
6.231745477861301197e+01 6.918363514966765138e+01 6.245246999337251737e+01
6.232275949530267667e+01 6.943789075254966292e+01 6.237095403330908994e+01
6.220856536498062184e+01 6.757395227298394502e+01 6.281139506172960552e+01
6.125910711843914669e+01 6.449269898294097914e+01 6.296164960216719919e+01
6.060483092303054775e+01 6.330818328213831592e+01 6.200844593101535906e+01
5.950522581349404305e+01 6.246464583542525162e+01 6.132054931041555790e+01
5.871319371433956036e+01 6.113047164925006172e+01 6.023574510932288462e+01
5.595837835173186647e+01 5.887807646217166990e+01 5.854906739690257211e+01
5.882087226912462796e+01 6.098704105139533027e+01 6.023953296720922879e+01
5.899867380183056298e+01 6.167600809113141480e+01 6.062967101112097623e+01
6.023322001881200549e+01 6.289548949651300092e+01 6.138695629616607619e+01
6.161619634961027714e+01 6.413353044315763896e+01 6.227401115716632773e+01
6.178300371708390060e+01 6.397456511748066532e+01 6.193392023800361557e+01
6.400358747371235779e+01 6.750672859284993876e+01 6.455335865985388466e+01
6.544255714562426363e+01 6.806155336905001718e+01 6.495459258181871576e+01
6.137660642900189600e+01 6.318957019827416843e+01 6.154289850551021601e+01
6.457065296382674546e+01 6.695362961867081708e+01 6.380702078912740660e+01
6.719895646470085637e+01 7.076854899977797686e+01 6.673112786494911575e+01
6.733371625108925684e+01 6.963078172739793104e+01 6.577131140380596719e+01
6.600280771153641979e+01 6.787421169957711697e+01 6.466828859884535063e+01
6.791505182929429907e+01 7.251668028976484948e+01 6.538456077923711973e+01
6.669698199671385908e+01 6.882291981725506957e+01 6.508602298440767697e+01
6.678563369066569066e+01 6.954945760869475180e+01 6.567644761054086189e+01
6.738945038921958997e+01 7.038735057871220135e+01 6.569700237952983457e+01
6.882155395501715134e+01 7.464407506945146054e+01 6.616055321870391026e+01
6.829231809816413090e+01 7.129026211334841889e+01 6.574798393036897437e+01
6.774454065146987602e+01 7.415299880957751100e+01 6.363954769150102209e+01
7.090440421886393096e+01 7.936829582681295392e+01 6.574305729127166842e+01
6.986269709602341038e+01 7.800392969017734401e+01 6.513422693888853132e+01
6.969513351045694094e+01 7.826827951690825103e+01 6.187668777788989871e+01
7.097201524881991475e+01 8.392819094550628733e+01 6.477599117424421138e+01
6.578895998246456145e+01 7.764203144472806173e+01 6.236990910056284321e+01
6.946424521480346925e+01 8.186668537681967450e+01 6.574424512365685302e+01
6.860103218551550697e+01 7.879265242506831157e+01 6.362682868752494869e+01
7.149705910999240643e+01 8.357175134514032777e+01 6.439641738698907147e+01
7.152244024303544734e+01 8.007922472863263863e+01 6.509634392148096538e+01
6.978359460452104202e+01 7.895004299475716891e+01 6.554913930393576038e+01
6.766589563654612505e+01 7.219497149183368379e+01 6.325391005485775509e+01
7.019064696697856220e+01 7.572578815677346142e+01 6.591523691744285429e+01
6.857904266594226783e+01 7.148552571714232329e+01 6.577277893432112421e+01
7.106088879677697889e+01 7.573709150016040326e+01 6.728250782502173877e+01
6.928686865759439684e+01 7.153011599856529301e+01 6.562973271448872481e+01
6.791966617773717019e+01 7.247727100764221575e+01 6.484084808797815924e+01
6.818216925970328646e+01 6.959558314786063704e+01 6.436534760715966286e+01
6.879936965013806116e+01 7.023359046498445935e+01 6.463787014026732436e+01
6.629649006672731559e+01 6.679501440125403633e+01 6.345204917759722463e+01
6.601615329168416224e+01 6.676969598455960409e+01 6.334519107373372293e+01
6.659964082593945989e+01 6.857101299571779407e+01 6.460726337829930799e+01
6.559649864535832364e+01 6.755553713092362500e+01 6.410741625906730690e+01
6.508262879904799547e+01 6.790557705106273545e+01 6.329612952584847108e+01
6.632744524788495255e+01 6.998713616639912516e+01 6.524116017865279105e+01
6.706615671879508511e+01 7.135566856436366834e+01 6.698955382915961820e+01
6.585802624907638858e+01 6.887618034582635573e+01 6.459854496723284001e+01
6.564553232901148760e+01 6.972969630199936830e+01 6.418926199305742841e+01
6.425938897655436222e+01 6.567798529708960587e+01 6.296054986929124908e+01
6.409715322275521032e+01 6.541087816969069024e+01 6.284548870409224008e+01
6.137955015239240453e+01 6.262910019688054319e+01 6.091048294274495589e+01
6.004282677527291412e+01 5.989623850759400625e+01 5.937023539151375928e+01
6.174492363511608062e+01 6.362875539018742188e+01 6.133930675829937940e+01
6.198743905046169544e+01 6.632716724920560125e+01 6.215826293564530403e+01
6.275650702555095961e+01 6.641609150524412541e+01 6.314653215214784154e+01
6.229688894566719881e+01 6.444862139740682494e+01 6.191028935259252108e+01
5.994734714003492115e+01 6.097320910254252624e+01 6.012291316080294479e+01
5.688370969915549580e+01 5.699139749447292047e+01 5.745010313238686450e+01
5.566977821921191349e+01 5.521592495322299499e+01 5.643455893154804670e+01
5.410511325279831141e+01 5.393049602745610116e+01 5.543923999298737471e+01
5.555271516192824777e+01 5.510433795924620171e+01 5.633300434981447324e+01
5.567333690978642835e+01 5.532290296837519605e+01 5.656114800082421112e+01
5.639521043952397861e+01 5.582076894183681759e+01 5.692591731484334616e+01
5.788880398542814731e+01 5.678609148360616388e+01 5.779090707969153584e+01
5.889203405197544328e+01 5.844293782854787622e+01 5.882399050682063546e+01
5.802358838860248369e+01 5.701515070183378953e+01 5.795012968039333145e+01
6.382642662110948351e+01 5.875806375990382691e+01 6.094851961243448102e+01
5.915785020309996156e+01 5.745573879565333186e+01 5.861375600148390674e+01
5.891075210387680983e+01 5.686763872503671280e+01 5.835544297655824408e+01
6.072064765415913712e+01 5.952899974432711616e+01 5.992763259208449966e+01
5.903134900316842248e+01 5.639294905531150448e+01 5.804456169943513544e+01
5.993507439691055083e+01 5.784183156071520671e+01 5.885445482524800553e+01
5.981171382968243222e+01 5.705378644641688624e+01 5.869137119716712903e+01
5.895434805574795689e+01 5.614053262424679502e+01 5.809492500751343158e+01
5.887988617038168115e+01 5.599216581590908248e+01 5.796528689123661593e+01
5.813777643858027488e+01 5.525619007197190058e+01 5.738717050832532607e+01
5.777322217932625392e+01 5.515578558696975620e+01 5.712061490165624633e+01
5.573946052835609066e+01 5.333824640270975692e+01 5.617501321327335972e+01
5.399550378528321914e+01 5.237569102805154131e+01 5.535360522251503568e+01
5.310155840891324175e+01 5.159363568325260019e+01 5.498626996404630063e+01
5.269480458579941029e+01 5.143086188801245129e+01 5.481738815208333904e+01
5.194819601099651152e+01 5.122767063098245899e+01 5.448068832428578645e+01
5.288024748501363348e+01 5.173887063317219770e+01 5.487203762520444883e+01
5.275258225939785461e+01 5.148846326860064693e+01 5.482170281149666380e+01
5.354915754469569578e+01 5.145176214974191709e+01 5.515724580119465514e+01
5.384292692389588098e+01 5.120206414377611281e+01 5.529759892975440039e+01
5.412205360896645345e+01 5.124453662406388332e+01 5.513536125247652109e+01
5.379228116618456568e+01 5.103958074398117617e+01 5.525784515054504453e+01
5.279493756088835710e+01 5.075576119142757392e+01 5.481606860996306807e+01
5.381131797821870322e+01 5.060794981832938788e+01 5.525006198225771215e+01
5.383302612454456693e+01 5.031041766964447959e+01 5.525628719347492535e+01
5.386446126068730678e+01 5.030172033546145371e+01 5.526662898355344566e+01
5.401326146083537338e+01 5.017895179755382173e+01 5.532145200987496025e+01
5.381487340305857714e+01 5.116067944232177211e+01 5.173246653375881721e+01
5.382781086305872975e+01 5.222702135245950217e+01 4.777469108047056068e+01
5.063450213536106759e+01 5.088700091693722527e+01 4.793386517315322237e+01
5.178026345614782144e+01 5.048810145483958678e+01 4.733758251514908011e+01
5.215998373566844748e+01 4.961359780519941154e+01 4.917660823509598345e+01
5.248032837632669612e+01 5.060875135795942725e+01 4.685076842118674278e+01
5.168336410298882555e+01 5.039152865846516960e+01 4.704166116639476769e+01
5.340276160100028591e+01 4.950770189992375947e+01 4.558178103130548919e+01
5.384332845494521536e+01 4.996383432940127989e+01 4.569969656087626220e+01
5.348997359430818221e+01 5.010009650574014728e+01 4.590342481049869860e+01
5.273631540290398334e+01 4.942283495263194482e+01 4.573100203135248165e+01
5.331026801591733744e+01 4.917593451959506723e+01 4.520989104756255017e+01
5.272187989022322085e+01 4.894306147280486385e+01 4.496068079732473421e+01
5.136543340289659199e+01 5.006047417600431260e+01 4.662067797091199850e+01
5.182485175007541756e+01 4.940708291541831443e+01 4.558785714180988435e+01
5.164016417470948994e+01 4.895913459058713357e+01 4.660933942476403757e+01
4.977687848536070447e+01 5.097299818117812720e+01 4.772280384794360941e+01
4.965290801810914445e+01 5.104296888262964416e+01 4.753433327121542362e+01
5.038258437474495821e+01 5.042042675136531926e+01 4.687577442323858889e+01
4.980479501909424300e+01 5.092079450432772347e+01 4.754589573003714520e+01
5.003095938950924193e+01 5.074618919355201285e+01 4.703600901182606009e+01
4.950640605543142669e+01 5.120178986817719391e+01 4.788909051750354706e+01
4.933704012554116503e+01 5.133218349931877356e+01 4.780504499636276705e+01
4.915870754806668685e+01 5.154808508223577945e+01 4.832178721877467353e+01
4.895520797139113967e+01 5.172776435939827167e+01 4.852087833685605744e+01
4.845175658705049671e+01 5.216010363114320825e+01 4.892056161445840701e+01
4.964610989229569782e+01 5.107138931930548864e+01 4.743557854804127771e+01
4.916551928650481074e+01 5.150103795071495227e+01 4.820367283153834137e+01
4.975905700088901540e+01 5.096985891524219170e+01 4.786390016345830389e+01
4.991898355808344689e+01 5.081833277347973876e+01 4.690232119662824317e+01
5.019787271967284426e+01 5.061160598290163648e+01 4.847184050787969767e+01
5.087921020337828537e+01 5.008235654795350911e+01 5.040557425527275370e+01
5.024753761654544348e+01 5.057215947121423483e+01 4.886960158754272499e+01
5.022773951510660595e+01 5.058451012181834727e+01 4.866413465789376147e+01
5.050951316908074773e+01 5.041160392923267608e+01 5.140797752050119840e+01
5.077671048557696309e+01 4.969950149089241620e+01 4.840254181724507276e+01
5.090330035333990821e+01 5.004389691163103038e+01 5.043451925169642180e+01
5.068172027152272108e+01 5.018755579747545426e+01 4.945966570623178882e+01
5.129039419598152705e+01 4.958619659253495371e+01 4.771025385812578889e+01
5.137981039038378839e+01 4.962950965167260620e+01 5.044080635567824089e+01
5.244965076349100741e+01 4.905984624252118920e+01 4.911957551862722227e+01
5.202286058173829986e+01 4.904865802595976731e+01 4.990005165144557964e+01
5.257074437734315353e+01 4.868261998905365573e+01 4.858995011237239225e+01
5.166231161418913587e+01 4.928266597499448665e+01 4.917709917461323244e+01
5.099879561645374793e+01 4.960676080363077745e+01 4.438029363380813663e+01
5.102184929436113947e+01 4.980130292443644180e+01 4.631803504227586643e+01
5.140756718097181732e+01 4.901489065074317608e+01 4.686634632094376229e+01
4.844646852301237061e+01 5.205010237882989088e+01 4.219862264439779409e+01
5.102567193875908202e+01 4.983565454490886282e+01 4.890162065271307057e+01
5.103867492255554339e+01 4.978642664699500386e+01 4.801392572103812029e+01
5.116118287272929166e+01 4.964991626565694105e+01 4.698642890212097001e+01
5.131970403171617789e+01 4.952047425132079184e+01 4.762197758068980136e+01
5.177160507654291166e+01 4.926616544472598491e+01 5.041048748348791975e+01
5.166107347106964198e+01 4.930614483879712395e+01 4.975044132634581473e+01
5.164252441281336559e+01 4.925693930161236267e+01 4.807471490827956018e+01
5.278481324166935451e+01 4.841693386350585371e+01 5.132806432817412201e+01
5.201303655294021411e+01 4.920289930799608413e+01 5.247941443598357836e+01
5.254539677821610155e+01 4.884979063936841470e+01 5.342033013419253251e+01
5.223384964466733038e+01 4.910302170509183384e+01 5.337205284010627082e+01
5.123714567603687442e+01 5.003629951058206160e+01 5.378395190023962158e+01
5.272658214006921895e+01 4.859058990065700101e+01 5.177743957196616265e+01
5.205171847318237610e+01 4.918533436341721199e+01 5.262294978517117983e+01
5.244085223328360001e+01 4.873606824816095440e+01 5.124414243431268545e+01
5.081352730547660457e+01 5.000652100687630508e+01 4.882106551136924111e+01
5.210145122532502882e+01 4.912755775925536739e+01 5.237606163604049669e+01
5.247847754053428559e+01 4.867566716070065524e+01 5.049934150906896235e+01
5.227593890097590901e+01 4.899070161227324149e+01 5.072288293049107466e+01
5.305841332343934624e+01 4.826029113977156015e+01 5.129553761748860552e+01
5.293208327135832292e+01 4.862972716394799022e+01 4.938165806366353650e+01
5.314523865595126750e+01 4.827911493854271896e+01 4.919072239644976463e+01
5.377430465316201236e+01 4.802013190629779871e+01 5.312349323251986277e+01
5.232022152977486229e+01 4.916402766231018262e+01 5.395840988240436076e+01
5.302061560980381927e+01 4.891290499725757712e+01 5.364977220125472712e+01
5.290619468759740585e+01 4.874918026251760494e+01 5.402344854636434235e+01
5.159639415218657632e+01 4.987225895295016898e+01 5.440771545869309023e+01
5.333051551850999061e+01 4.946228571659328566e+01 5.213318725317581226e+01
5.138596441833075801e+01 5.007421063651641191e+01 5.319066576501060695e+01
5.204818835567255775e+01 4.958405456528689115e+01 5.466121443372505695e+01
5.101573012278002039e+01 5.032565297727862230e+01 5.412213545982599783e+01
5.223040672346440516e+01 4.932361531859926629e+01 5.475919901914605958e+01
5.254587038227160889e+01 4.898333268654066330e+01 5.414371569338668877e+01
5.233437973740913662e+01 4.920246284385113711e+01 5.454480855303886244e+01
5.136490254115643950e+01 5.005179545749505365e+01 5.436295797865416546e+01
5.158688385570860646e+01 4.989561582060428435e+01 5.448871911046887107e+01
5.119503985396025314e+01 5.020294047456398090e+01 5.426674444238786066e+01
5.200816726515195398e+01 4.959070483043349498e+01 5.468726192014487708e+01
5.193419339738230889e+01 4.965171318992296534e+01 5.460801972242420987e+01
5.169232025177367262e+01 4.994885494053072250e+01 5.431742961216742316e+01
5.193453070918379666e+01 4.974828198063360674e+01 5.446094731444360093e+01
5.131503467243099692e+01 5.039076870627303606e+01 5.383535608638644732e+01
5.148903172941194128e+01 5.001067601546719743e+01 5.439547595679891856e+01
5.190115542900366563e+01 4.977164052680566186e+01 5.449491206545333455e+01
5.193156223983186237e+01 4.980125013710741655e+01 5.440819270295439480e+01
5.165565565443323948e+01 4.989469017635175874e+01 5.438683417265993114e+01
5.185546743210620946e+01 4.977990202766405048e+01 5.455088826944832903e+01
5.091423385325290951e+01 5.065297148507160330e+01 5.377571601823346725e+01
5.058220860277906183e+01 5.073345434277320010e+01 5.384797487352172851e+01
5.167157482515339240e+01 4.993053780942113207e+01 5.439310474072998858e+01
5.129490399964025471e+01 5.031222824510305003e+01 5.407730373050538475e+01
5.043070811441170065e+01 5.148240150751315980e+01 5.299423707604161393e+01
5.117793220413769717e+01 5.045515759632785091e+01 5.393054693810665157e+01
5.068978670610226089e+01 5.133091216690639413e+01 5.312745999298206101e+01
5.054615900481190494e+01 5.136796108102403480e+01 5.310300989222361778e+01
5.031768036202515759e+01 5.157350081134680408e+01 5.295888767411158682e+01
4.952526954698846140e+01 5.209727950555087261e+01 5.258097708786039703e+01
5.031613878996780187e+01 5.157309502245215072e+01 5.295495984630528596e+01
5.036423309005110127e+01 5.115918655227648060e+01 5.335704601638161648e+01
5.048441637596727105e+01 5.111023534821968894e+01 5.337313041159659122e+01
5.086186248862226478e+01 5.084364094286512881e+01 5.356797645832718757e+01
5.046828498259702656e+01 5.090792410473492424e+01 5.365658020088334013e+01
5.108204359040659170e+01 5.037691647634046177e+01 5.411060189810432774e+01
5.147982755234478702e+01 5.013485397954980272e+01 5.422102342538229180e+01
5.120406253953611042e+01 5.027379764253390704e+01 5.415666100909028557e+01
5.102390937807943772e+01 5.046936974400383491e+01 5.398282747567261453e+01
5.109537316610401803e+01 5.032336471248741816e+01 5.418238536334200006e+01
5.173338624089291216e+01 4.987052253225532894e+01 5.447500058566792092e+01
5.131182095061006976e+01 5.017467662873094980e+01 5.428618425945735027e+01
5.149010739290573468e+01 5.000074233488673769e+01 5.442534126343529977e+01
5.077807874924167209e+01 5.053630319500229007e+01 5.402676736411442704e+01
5.101054269917774775e+01 5.037392452926808062e+01 5.414124025804311913e+01
5.104661726872485161e+01 5.035603910634706892e+01 5.413364462509329655e+01
5.128722277917752592e+01 5.014614304566197234e+01 5.393302353188379072e+01
5.111448602959992371e+01 5.030753896352008070e+01 5.414990143254346577e+01
5.121245322327774829e+01 5.023261374378422772e+01 5.421224512166148202e+01
5.064707795321557171e+01 5.065208575287640258e+01 5.393180986439556079e+01
5.035322296364616790e+01 5.084731482728228258e+01 5.379720572437677362e+01
5.043067083787091320e+01 5.080636724399360560e+01 5.381610800366927805e+01
5.031368620693525173e+01 5.089068255109955174e+01 5.375222472351104841e+01
5.300137235850996831e+01 4.894992351339239178e+01 5.518714008197051868e+01
5.245051564739017635e+01 4.935972952506087097e+01 5.487758920253684636e+01
4.974391862198774561e+01 5.129284189372017266e+01 5.345547668547548170e+01
5.010396848660349178e+01 5.103900308338182867e+01 5.364263121277362245e+01
5.237631628065586398e+01 4.940301518979699580e+01 5.485791907799936240e+01
4.964460829535390474e+01 5.134895167140741279e+01 5.342588641385739834e+01
4.997498796812430299e+01 5.110844283110902353e+01 5.360451250116979338e+01
5.000191942588489269e+01 5.109378492797907256e+01 5.361456098156301664e+01
5.055845282841036692e+01 5.069179190029223037e+01 5.391270201615695612e+01
5.014375320766050237e+01 5.099113058498775075e+01 5.369065780549046707e+01
5.023280501313643498e+01 5.092349783953617504e+01 5.374144699471339948e+01
5.060158748514599836e+01 5.065247967874894641e+01 5.394319979750282812e+01
5.052317601313097128e+01 5.070061048443429996e+01 5.390833791994786139e+01
5.071607021644949498e+01 5.055743808098534231e+01 5.401467351369617376e+01
5.060116686511591411e+01 5.063993590507440246e+01 5.395325986298783505e+01
5.091689536204781064e+01 5.040169578336460177e+01 5.412740275535871604e+01
5.092651786117822610e+01 5.039102645305060690e+01 5.413376326252947024e+01
5.129105746169144453e+01 5.011095493033523240e+01 5.433932845335351658e+01
5.148885650630768396e+01 4.995430110639030374e+01 5.445131002511615037e+01
5.147187021197834156e+01 4.996187338726743121e+01 5.444315542328776303e+01
5.156852619716168817e+01 4.987852529931880952e+01 5.449882809643110448e+01
5.155367694941649859e+01 4.988797582659349672e+01 5.449147407635425111e+01
5.191318075080781824e+01 4.960405969550439664e+01 5.469650345965145277e+01
5.220053156946445228e+01 4.936705322554175979e+01 5.486297818174958962e+01
5.224366924436051107e+01 4.933071116362023645e+01 5.488698219492405883e+01
5.205966943234077604e+01 4.947756133224101660e+01 5.478334277283980214e+01
5.241055677871801777e+01 4.918352790213768344e+01 5.496953141519343689e+01
5.269000140012604305e+01 4.895442777152855029e+01 5.510650033515804580e+01
5.312809928540566773e+01 4.860197002996692817e+01 5.532278211983437188e+01
5.291790831266560247e+01 4.877015895559797798e+01 5.521088475628853587e+01
5.282408993432336786e+01 4.884188132510895741e+01 5.515386109065736520e+01
5.275470793812266379e+01 4.889823134382469760e+01 5.511797816459852584e+01
5.270214837345613290e+01 4.893889047702047890e+01 5.508622181107299554e+01
5.311878041809680440e+01 4.859198810541372637e+01 5.509846966630403386e+01
5.345098953491635285e+01 4.833792620402729767e+01 5.513544678319010472e+01
5.401914921224585697e+01 4.786476240301254137e+01 5.522056197834652380e+01
5.398426062493175692e+01 4.788243395068132457e+01 5.502631925778188560e+01
5.351181768092585145e+01 4.829237307909245658e+01 5.504119947940348823e+01
5.303823888459977809e+01 4.867572858508425071e+01 5.479008092121000573e+01
5.326694657945493816e+01 4.848091179061773204e+01 5.483018219842445262e+01
5.298824996919421437e+01 4.872528587844210080e+01 5.489495980901892835e+01
5.280704505904621726e+01 4.886714107704099064e+01 5.483449432095071074e+01
5.295917149898801313e+01 4.874823306496095654e+01 5.480356975082023752e+01
5.227385481485012519e+01 4.929560857650658789e+01 5.451542510067652358e+01
5.413380275756664162e+01 4.786439963173525314e+01 5.457164589523777209e+01
5.491958119984058584e+01 4.730958938065710129e+01 5.475304168854565745e+01
5.457777872373651462e+01 4.756738533126709001e+01 5.465470296901266067e+01
5.534532740423127706e+01 4.704133780311003221e+01 5.472351219896797403e+01
5.492327574144557900e+01 4.737693985968512322e+01 5.456667811253068123e+01
5.518379170763545716e+01 4.715171771556957481e+01 5.473119050287395027e+01
5.504650720170852907e+01 4.722424631767237457e+01 5.474139854549513018e+01
5.538536055039257633e+01 4.697459823606195073e+01 5.483207832487826039e+01
5.464647622470196353e+01 4.749020099275711004e+01 5.471264517357796109e+01
5.458755579155540261e+01 4.749287535164666707e+01 5.475913086778242445e+01
5.424626267861323470e+01 4.775793747844831216e+01 5.464605180891553715e+01
5.409756913080470042e+01 4.786912373056829750e+01 5.462210775759770343e+01
5.281146978049617502e+01 4.883594378021932414e+01 5.450569580962817184e+01
5.220992863092078551e+01 4.931652213602820467e+01 5.446841523155475073e+01
5.268486529500695070e+01 4.896430033387241565e+01 5.456537842698178764e+01
5.300126323541663709e+01 4.870929050050654041e+01 5.473915106446703760e+01
5.261332680124146322e+01 4.900129720418034651e+01 5.471813036714898004e+01
5.262765092148221413e+01 4.899425140867057848e+01 5.470600052541815472e+01
5.293105487199044745e+01 4.876062943224646773e+01 5.473717522877036856e+01
5.286421099855223105e+01 4.881235306614536285e+01 5.468460631832033414e+01
5.239529902098348657e+01 4.918234392199478577e+01 5.457597247199082346e+01
5.215223002464055924e+01 4.936939338588487658e+01 5.447894818364872549e+01
5.135953448386457154e+01 5.000497991788779473e+01 5.409107766162641440e+01
5.079900945563866799e+01 5.047736338055760541e+01 5.376037748312020881e+01
5.087039179673308809e+01 5.041090045914467055e+01 5.385531565001075194e+01
5.090439604567212228e+01 5.038485211031747468e+01 5.382267403833328956e+01
5.025251963634637775e+01 5.087710936443863829e+01 5.362085010527403028e+01
5.097609006598355563e+01 5.033110667507615688e+01 5.383300325914975559e+01
5.156944364768288835e+01 4.988648131185847490e+01 5.397056690509634791e+01
5.138718313130620174e+01 5.009787561441796555e+01 5.369283359816510881e+01
5.134004465433526576e+01 5.006991883593632764e+01 5.396435073791722203e+01
5.144788638945511394e+01 5.022763972277346056e+01 5.304534315591633487e+01
5.275271604818116344e+01 4.903795535858196075e+01 5.325562032085477426e+01
5.448701968869918488e+01 4.764833887564528681e+01 5.234528916368855533e+01
5.196961655499555377e+01 4.979509611111538447e+01 5.284460766451171310e+01
5.124469240642532242e+01 5.044727336744468715e+01 5.265671844717437722e+01
5.087489602433809210e+01 5.089007454070535630e+01 5.220893164415058152e+01
4.992195960464160720e+01 5.206445040236443589e+01 4.963128345076255243e+01
4.912742685186000813e+01 5.264554865509835935e+01 5.037827568673318268e+01
4.931969875781042845e+01 5.263465209419815949e+01 4.999685054031313314e+01
4.920828649360344542e+01 5.280879760771044573e+01 4.946453658814955645e+01
4.937573950232545883e+01 5.255679008909032035e+01 4.985582328360223414e+01
4.931836133038506631e+01 5.271897814644284352e+01 4.911491366220744226e+01
4.883458199954641543e+01 5.307977621688223024e+01 4.588348248014098374e+01
4.910647928306912746e+01 5.277062715926846437e+01 4.916354977188529318e+01
4.948189942760892279e+01 5.250201406220120504e+01 4.890270531977082413e+01
4.757141297516535872e+01 5.394931827043030381e+01 4.101439579128417279e+01
4.776689071195076508e+01 5.335693024209343349e+01 3.306606025142217220e+01
5.047000931367555410e+01 5.120058207252265703e+01 3.466607305326525790e+01
4.874992843557567568e+01 5.260874864103572435e+01 3.136462213124729814e+01
4.748594441217297657e+01 5.385885891184553742e+01 3.353499038026641443e+01
4.699584048919339807e+01 5.429902554470061204e+01 3.295132446373875013e+01
4.625922704974041721e+01 5.509422949543366599e+01 3.179257257995340069e+01
4.551514462933707961e+01 5.576053955971081422e+01 3.111249585183054833e+01
4.575917304358076620e+01 5.554213787495459798e+01 3.050736228055506771e+01
4.525250095598109112e+01 5.606419657964740111e+01 3.267472752341987530e+01
4.588749722265934849e+01 5.552904967468028019e+01 3.205339644911223473e+01
4.505027483817299583e+01 5.631391639237634195e+01 3.462201225642385793e+01
4.497151067251903811e+01 5.655490352607579041e+01 3.578237376484124610e+01
4.546178348832899729e+01 5.627126242115216570e+01 3.788003806970739618e+01
4.563807703204864907e+01 5.619940734902417745e+01 3.756580174098565550e+01
4.427901156272889693e+01 5.724235807277013066e+01 4.022709853490635368e+01
4.168454681557658148e+01 5.984016717702624533e+01 3.727708376672116941e+01
4.173712473615101004e+01 5.953512405398642215e+01 4.098450997890280689e+01
4.158147813085992794e+01 5.965532822850016714e+01 4.103230062379348198e+01
4.384116062160913430e+01 5.746496819425941283e+01 4.530665635080700326e+01
4.229505056814711139e+01 5.905286421119799911e+01 4.220091425476261549e+01
4.113392718394215564e+01 6.013554271347063462e+01 3.985308008891909992e+01
4.164477127375086951e+01 5.971834789664768550e+01 4.051168212261813295e+01
4.112632292501002240e+01 6.033136749945339261e+01 3.821470984175208230e+01
4.055704715409221706e+01 6.047751910586202939e+01 3.610913201567613129e+01
4.015986776912071576e+01 6.083658051783537246e+01 3.742598059533538191e+01
3.846577538194870272e+01 6.272050045880151714e+01 3.106388900157925903e+01
3.934230138925592257e+01 6.248465206167995234e+01 2.999334343211328502e+01
3.890437328453698029e+01 6.208555581763676656e+01 3.459052788883067109e+01
3.924421115359135115e+01 6.162478093163873893e+01 3.542253608811189025e+01
3.952289916980365803e+01 6.164875460888625014e+01 3.076090472992892799e+01
3.894288445250273867e+01 6.181736748812055282e+01 3.246296933465178824e+01
3.833475014709832607e+01 6.307385509968374038e+01 2.472414520185510867e+01
3.844663794732887396e+01 6.375799989678374402e+01 2.745385449048664839e+01
3.853374479075220194e+01 6.342390085573617853e+01 2.581932275451305614e+01
3.758896374442875299e+01 6.705273873063578094e+01 2.433023104845845808e+01
3.899870156161251344e+01 6.565711758323772074e+01 2.338768463472566950e+01
4.034442189693852043e+01 6.824079200398786327e+01 2.512628549097444264e+01
3.839100679010301320e+01 6.766793553544651729e+01 2.245825084167412200e+01
3.731370207651544035e+01 6.989171833622083341e+01 1.735153527249354255e+01
3.672781406956506345e+01 7.080576178711643820e+01 1.550488303853986061e+01
3.692887718183929735e+01 6.953363039952064639e+01 1.840458225195374808e+01
3.635154565839786756e+01 6.956192802754588911e+01 2.067359908588202799e+01
3.555040412462585664e+01 6.835570611960002907e+01 2.447670742614051420e+01
3.452066472962765431e+01 7.041713476994358700e+01 1.803516266004560009e+01
3.646127700477072864e+01 6.546081511425853705e+01 2.368817596324630514e+01
3.567267569398693894e+01 6.735931269133951105e+01 2.105899847668157676e+01
3.520308792863338709e+01 6.999867689358613632e+01 1.477507020341404598e+01
3.426092135845578923e+01 7.226835205752487923e+01 1.274846847288680962e+01
3.182490162332594252e+01 7.230685567776727396e+01 1.148887783238235372e+01
3.495629766674536398e+01 7.159356719723071194e+01 1.762613146574853218e+01
3.216898832594678481e+01 7.219007335670383441e+01 1.663059913503463605e+01
3.164718250620173734e+01 7.366029084154780548e+01 1.089181510781570061e+01
3.293051844521865945e+01 7.584284547663700948e+01 7.594928703510854362e+00
3.343738619435510628e+01 7.140475845770590979e+01 1.628302338857042031e+01
3.115886006166531885e+01 7.176820414397667491e+01 1.434708396054686119e+01
3.101764517161838342e+01 7.141160938516823364e+01 1.411441374679556660e+01
3.406409571540525150e+01 6.676871280593356062e+01 2.435432785822996848e+01
3.143841304863115838e+01 7.151546475144876069e+01 1.263267887942322965e+01
3.001889847608626738e+01 7.330088801629260331e+01 9.909693365512632468e+00
3.035390470179271816e+01 7.367282971703505723e+01 1.016721687264082874e+01
3.034438723415480865e+01 7.272998105206605146e+01 1.174635413670159778e+01
3.122463081837173959e+01 7.179597351644858350e+01 1.238573872132086073e+01
3.241253683115661488e+01 6.836948382530268020e+01 1.977730332302571270e+01
3.225637837726934265e+01 7.215688399275204290e+01 1.340639140807196483e+01
3.409215098913801967e+01 6.819186213409690822e+01 9.478466126099149847e+00
3.149094929351223371e+01 7.078838446461664091e+01 8.016348966398995302e+00
3.093036760742544189e+01 7.012393060408551548e+01 4.658896413749808119e+00
3.316911181145830767e+01 6.904467648879924013e+01 2.833587916664691786e+00
3.589062743323446369e+01 6.437830873743251914e+01 5.505625142755442347e+00
3.628060829392320841e+01 6.518262927144763808e+01 2.953953745870163239e+00
3.463316516388427146e+01 6.520587647876088511e+01 8.363684989136245918e+00
3.644239244622989560e+01 6.345105437930795489e+01 1.249795180663886995e+01
3.632652954295555503e+01 6.364389273490121468e+01 1.305059625016321689e+01
3.653956175188474020e+01 6.338451226193600263e+01 1.425275751777241773e+01
3.705270104433260769e+01 6.286061192258144104e+01 2.013630377316413345e+01
3.853217588735163446e+01 6.149878061433096121e+01 2.241740771986731318e+01
3.709084123435888358e+01 6.284839877131544483e+01 1.638808121890011904e+01
3.589496120496570342e+01 6.396199563428235280e+01 1.151235732542321699e+01
3.483961472914641178e+01 6.478713679387084312e+01 6.755368276276817241e+00
3.577400190512037170e+01 6.408332455253673743e+01 7.923355329990023677e+00
3.858185101351333657e+01 6.150870749604217735e+01 7.241842530006550760e+00
3.834722180363635857e+01 6.186192526979168349e+01 4.807427595012827126e+00
3.824627681632670573e+01 6.239941162260470975e+01 1.149727510219834992e+00
3.738879924864452420e+01 6.375243115169296715e+01 4.154915662095789664e+00
3.710065214744968642e+01 6.298421051368182333e+01 4.739860875452139410e+00
3.991738188782750285e+01 6.077135804446518108e+01 1.603842108324001092e+00
4.154859879150353663e+01 5.828671458722135412e+01 0.000000000000000000e+00
4.141151377677859102e+01 5.891388771829348769e+01 1.042440671511328354e+00
4.223692702346233574e+01 5.874589353197974617e+01 1.238350531861203585e+00
4.465030889456091501e+01 5.580583488087027888e+01 1.061423083704057646e+01
4.572279531292532795e+01 5.477648592276705131e+01 1.044652179358370248e+01
4.580628892143881359e+01 5.363831769385236470e+01 1.112139714818049008e+01
4.539643782128923988e+01 5.497266187775517920e+01 1.103245297731192132e+01
4.727099767081887194e+01 5.300976199027770264e+01 1.458592473150899238e+01
4.801651563500893616e+01 5.237523204033697510e+01 2.011289322630172904e+01
4.934906105398667364e+01 5.022538646515975103e+01 1.803333486608406133e+01
5.015723736792078569e+01 5.062479409850553225e+01 2.067068755114679846e+01
5.011642718824224119e+01 4.971935747957247997e+01 1.882029364353385148e+01
5.092685546427868815e+01 4.914771428530393393e+01 2.228400197203824717e+01
4.936810696829367373e+01 5.145025355211888751e+01 2.158511496513117578e+01
5.104717215546784104e+01 4.987379613054106642e+01 2.663965075752115652e+01
5.262881527655049041e+01 4.755737927205154136e+01 2.981749115815196660e+01
5.230955666565071738e+01 4.761104756674061633e+01 2.555115017554349066e+01
5.240473649737323569e+01 4.754395138759347361e+01 2.568539033803414640e+01
5.161466384855854983e+01 4.853154976972871282e+01 2.199469716094259297e+01
4.976634252714647744e+01 5.111144258587560785e+01 2.399247185747950795e+01
4.905180744774356327e+01 5.120665347913498522e+01 2.476144242238191850e+01
4.849252214726559629e+01 5.187651691703130297e+01 2.134065410558235953e+01
4.719911565697226052e+01 5.281039979140694385e+01 2.629728834650689961e+01
4.910979514331540940e+01 5.102496127118630653e+01 2.755816180525550507e+01
4.909767031972278772e+01 5.102927265226531262e+01 2.621366428624708078e+01
4.648793105134229364e+01 5.347558316356366248e+01 3.427437379201433032e+01
4.787251866334094075e+01 5.235491899268804872e+01 3.909978398401884903e+01
4.506601252388221468e+01 5.487995768767650162e+01 3.115642701156194150e+01
4.504444331006948232e+01 5.462115227429939068e+01 3.151600651801355113e+01
4.543537747401856564e+01 5.427380958323158922e+01 3.075816101657970592e+01
4.668290910911967018e+01 5.308040544129608662e+01 2.922259536159581828e+01
4.602629509329418767e+01 5.373313997941485809e+01 2.736783809275243229e+01
4.531862841221158078e+01 5.491022798436504360e+01 2.803095736502032764e+01
4.414608102190528882e+01 5.574833370806555877e+01 2.228944867898595206e+01
4.598203700226797963e+01 5.434966954211702728e+01 2.468073702614659837e+01
4.455954025575584865e+01 5.555349623696353234e+01 2.753861716775381296e+01
4.364576856279989414e+01 5.643221618261780037e+01 3.241838009175471313e+01
4.347579362034790051e+01 5.645931739703301844e+01 2.719862896229937377e+01
4.426493400652744015e+01 5.572490840902658249e+01 2.666367713881905033e+01
4.377747733058082247e+01 5.607052866902348143e+01 2.349563144513210133e+01
4.521866738334772151e+01 5.479055888069385105e+01 2.265189799510116231e+01
4.359616346176467516e+01 5.629477182777777955e+01 2.574893040519526721e+01
4.334980957429310422e+01 5.627601630036406988e+01 2.074239448563264432e+01
4.426404129811383115e+01 5.558672093711138729e+01 2.436575027643696600e+01
4.516267494628220902e+01 5.462789820551873987e+01 2.147605732451526350e+01
4.723091997766236005e+01 5.269537315660178223e+01 1.928805488075010643e+01
4.688188645385374542e+01 5.314801026538832218e+01 2.155909288323315209e+01
4.462277820574042408e+01 5.490697931950485611e+01 1.558959319512485564e+01
4.496085049726191585e+01 5.492429172340037269e+01 2.543537373805136070e+01
4.563142564281643843e+01 5.421947283305578225e+01 2.497577438571668296e+01
4.476388832036116128e+01 5.556177089349355214e+01 3.352456439307555769e+01
4.449920417076873491e+01 5.528581573499205604e+01 2.487465524200615619e+01
4.460935668113697972e+01 5.498438310610279700e+01 2.078826099230192881e+01
4.414654496497450964e+01 5.570148525118742100e+01 2.745088209029829684e+01
4.407200501896900136e+01 5.582770779159142904e+01 2.672518736071586787e+01
4.391162171748148779e+01 5.610948333942076971e+01 2.897699892991587234e+01
4.474359160748819875e+01 5.541490020459902155e+01 2.873951442741932283e+01
4.442702818235398610e+01 5.584261483976830931e+01 3.002052258930427442e+01
4.435072578144592370e+01 5.594137988435767284e+01 3.227476036451637498e+01
4.496434841126561821e+01 5.555231143383451808e+01 3.647240320007745851e+01
4.448804280951269163e+01 5.587269546096359107e+01 3.280451341894896444e+01
4.500110906039709846e+01 5.524885337324492696e+01 3.094327268010016496e+01
4.471728214401588275e+01 5.569103947332752114e+01 3.271149091283883337e+01
4.450859607657285721e+01 5.558465354667541192e+01 2.854615402494497189e+01
4.471053060782676170e+01 5.538905104837072457e+01 2.894876724702121606e+01
4.506568399814717907e+01 5.520125889800350905e+01 3.091454245424152347e+01
4.502825327745364348e+01 5.547131478470483756e+01 3.484190880664023382e+01
4.600336442844312757e+01 5.433996075954704708e+01 3.111897758041881090e+01
4.515433027110026387e+01 5.516814985671618388e+01 3.188684970430506738e+01
4.497577437823157709e+01 5.527119385177701361e+01 3.153800391766485589e+01
4.530175980017952497e+01 5.511256687171506030e+01 3.243447370181134204e+01
4.512475113631452217e+01 5.539643359745711848e+01 3.553678417410664991e+01
4.578101266378611456e+01 5.450867076141264533e+01 3.108463219137676958e+01
4.537524390363373072e+01 5.493536740417890485e+01 3.031943763131010527e+01
4.556673285060232104e+01 5.489519289197892959e+01 3.339400852753319526e+01
4.551275547249787934e+01 5.495366987108005219e+01 3.410409283881384113e+01
4.561711540292652955e+01 5.492412578245650678e+01 3.450564680357157243e+01
4.548336818977112017e+01 5.507563361549579639e+01 3.660283491467749428e+01
4.567592602541355262e+01 5.487607331839765124e+01 3.769744092276857828e+01
4.535443480936707061e+01 5.521317127184574503e+01 4.003284501060831957e+01
4.557858678806714892e+01 5.517195325649764470e+01 3.437714201963661509e+01
5.087721015284618886e+01 4.985205890166960785e+01 2.935809608786144054e+01
4.620787086854180359e+01 5.422754952481570001e+01 3.299466202896843470e+01
4.919172408688378084e+01 5.136461609268821604e+01 2.954654278655627309e+01
5.081070219596455928e+01 4.999665435401201563e+01 3.061232941561344845e+01
4.907132567399765577e+01 5.165902061931252121e+01 3.279322946062413280e+01
5.096870315193906009e+01 4.989563865286839928e+01 3.074124709225946361e+01
