4.925645453797404372e+01 3.617414539481313795e+01 2.406902882114819064e+01
2.826627611823904829e+01 4.197815444006624830e+01 1.906739723086590388e+01
4.254828035399007291e+01 3.764531791265667948e+01 2.191500382632806065e+01
3.931062118535734129e+01 3.965928003558271797e+01 1.466196908572295143e+01
3.931192669425124109e+01 3.943095704373505583e+01 1.826655473878189895e+01
4.067177937680012434e+01 3.844230868245745825e+01 1.489301932272219453e+01
4.503107620135238420e+01 3.592361573092068738e+01 1.813833122454203206e+01
4.375670947274222300e+01 3.626167031653419315e+01 1.836317448069377178e+01
4.343129471277121212e+01 3.644481456733136326e+01 2.002482128228500713e+01
4.310735767438251997e+01 3.651085471601567178e+01 2.240711603949959496e+01
4.335807363379705492e+01 3.600100397982587452e+01 2.342920926113303182e+01
4.357302504054255365e+01 3.566489109419276105e+01 2.536128930899484857e+01
4.076090612619510267e+01 3.591522905527611442e+01 2.494663507225455845e+01
3.497989601109104285e+01 3.438432709777932672e+01 2.438378289317951797e+01
3.324306178831125180e+01 3.339228314801372477e+01 2.339380014382504669e+01
2.937825625613695379e+01 3.280278929376544994e+01 2.483534840777047492e+01
3.241766558588678038e+01 3.191534397580813476e+01 2.571639321594054195e+01
3.285290390718858333e+01 3.120296749838442807e+01 2.596117071571209678e+01
3.490426620099492538e+01 3.107853826379287199e+01 2.631743106009254163e+01
3.486292895012245197e+01 3.009161865164439220e+01 2.567805577249505689e+01
3.568975435256268014e+01 2.884208415601748854e+01 2.532484797818581512e+01
3.696243971797467509e+01 2.750554351769481087e+01 2.275554965224515414e+01
4.162883114618851721e+01 2.740338492055374786e+01 1.928251422200381526e+01
4.301546159987152151e+01 2.640819791733864719e+01 1.720848823278296891e+01
4.592611494883338707e+01 2.641079235551130111e+01 1.696597296066173755e+01
4.844757887648049177e+01 2.825441672111693592e+01 1.517367766334203338e+01
4.832831117057940418e+01 2.937088515100541031e+01 1.508172849141175220e+01
4.792190986277113751e+01 3.520015474951473777e+01 1.675022932933994468e+01
4.652747091928297607e+01 3.588446659636363734e+01 1.941619615301090107e+01
4.652351905119761000e+01 3.545916606673559102e+01 1.991846862083903957e+01
4.541871839096290131e+01 3.673319389720935391e+01 2.136766573610729836e+01
4.784852324291686898e+01 3.603444856086645132e+01 1.686270201364474275e+01
5.038460942365053796e+01 3.579084226426623161e+01 1.490783015065133377e+01
5.026347819823154595e+01 3.566832646268877482e+01 1.983154859060111974e+01
4.631700472121043788e+01 3.787233740698051321e+01 1.478850130943927432e+01
4.706222968322213518e+01 3.692138368081174349e+01 1.477268877586406504e+01
4.642536863977151285e+01 3.655660138189687558e+01 1.140015440712235595e+01
3.975999521152930782e+01 3.940182947682114190e+01 1.084879115239380099e+01
4.634854398662996289e+01 3.451718306727664753e+01 1.528743614653802751e+01
4.588142879924868112e+01 3.487051498662044935e+01 1.021133784955454615e+01
5.007902259356442443e+01 3.370684769933485825e+01 1.314091807603821138e+01
4.696119620305326237e+01 3.571935434126666564e+01 8.725052230987493829e+00
5.105259023115923611e+01 3.373422910627414950e+01 1.187672560052309656e+01
4.978068993536549414e+01 3.439496244502731059e+01 1.301450216548163574e+01
5.186994539413534255e+01 3.331742987561113267e+01 7.547573820032794423e+00
5.053548874645415623e+01 3.433257152319121275e+01 1.158416479073526872e+01
4.948784503935996071e+01 3.481906219069578867e+01 1.369764824354927413e+01
4.618326417045660293e+01 3.648216107630939575e+01 1.883912078991231809e+01
3.792048422447070521e+01 3.597101279866102175e+01 1.500996764308991693e+01
3.909820585057303788e+01 3.370645443205899738e+01 1.264250856465778305e+01
3.942217135433951114e+01 3.286172155814803375e+01 1.228216365372321661e+01
4.041011698659823992e+01 3.209153445984131281e+01 8.688390007159220829e+00
4.030745662417153596e+01 3.116041413932232018e+01 1.283795165722241194e+01
4.235314835264601641e+01 3.004891271150700405e+01 1.102976830151999721e+01
4.311968321459028886e+01 3.070699566395471791e+01 8.479545660393410955e+00
4.154645404024434185e+01 3.139975965401181668e+01 1.416219812474309414e+01
4.568965871825071901e+01 2.848278366506798776e+01 2.031212397047056584e+01
4.782461088048381015e+01 2.733422129273122536e+01 2.394334278864283760e+01
4.713909576653259847e+01 2.344320183039851813e+01 2.692452175734367614e+01
4.818938144720803507e+01 2.405618709066808592e+01 2.724233847517032103e+01
4.696678232088899563e+01 2.325384125429206250e+01 2.812382854757761663e+01
4.685859076289486325e+01 2.356373337237608823e+01 2.910815045658439359e+01
4.893742792250689888e+01 2.368981784360286014e+01 2.827754114412121922e+01
5.033032555718756385e+01 2.025028557723998901e+01 2.781682245451675684e+01
5.078043627943560523e+01 2.231636620289838646e+01 2.854474457983244662e+01
5.008928653151309618e+01 2.404296909983641939e+01 2.922518729411904204e+01
4.739702134310385162e+01 2.448884195339065073e+01 2.654440388987977784e+01
4.555799614065248448e+01 2.789982492069549380e+01 2.738095095139906476e+01
4.580464198152557742e+01 2.795193136052356309e+01 2.466238817515320036e+01
4.752943633365863718e+01 2.758966217566765522e+01 2.404096424915458741e+01
4.780385071153661869e+01 2.575214466449882167e+01 2.296971184910792729e+01
4.735555580719815794e+01 2.580249890714392436e+01 2.388998516933308380e+01
4.673465375546039979e+01 2.520240404891790220e+01 2.490713705836727598e+01
4.536843753789821676e+01 2.667800740119702851e+01 2.690264830053904532e+01
4.390270893758241755e+01 2.534801560163578671e+01 2.786565899763842680e+01
4.429978898595289394e+01 2.596536522805235592e+01 2.775961011646118948e+01
4.296140787513274262e+01 2.798832479512357807e+01 3.053035199999019866e+01
4.208686481774833510e+01 2.916153651761815979e+01 3.172640559011589545e+01
4.155910997087523384e+01 2.820427291512098122e+01 3.252581786831095911e+01
4.153020830609168002e+01 2.772581936347427600e+01 3.227420442165327330e+01
4.149612338303715831e+01 2.724591087019144098e+01 3.290055631041908413e+01
4.172478916057876575e+01 2.732970886284054757e+01 3.280544871747859759e+01
4.179926190182792567e+01 2.742978379734104522e+01 3.190256322301219072e+01
4.157907262243285373e+01 2.692465297892454501e+01 3.214881762235029328e+01
4.308549479402741866e+01 2.693705683048668220e+01 3.012024774226665613e+01
4.399957783647012377e+01 2.870784107018133824e+01 2.949618730650227860e+01
4.654156367125225557e+01 2.845802228307066528e+01 3.047651207521069239e+01
4.576545484048166657e+01 2.756995941518514215e+01 2.676168204896505642e+01
4.659867928696843364e+01 3.028276175329265385e+01 2.129361975191951828e+01
4.740120352141308047e+01 2.824577775200230079e+01 2.143278185258225932e+01
4.841239364817715796e+01 3.382974406003442880e+01 1.802633406423969831e+01
4.627848791740024126e+01 3.414753945819351344e+01 1.521774912643109623e+01
4.745528027568659724e+01 3.524637251235029822e+01 1.542290094816756785e+01
4.620635570416069271e+01 3.440657702556239173e+01 1.924321204299882382e+01
3.978292621872021328e+01 3.779402984038969748e+01 1.623334481710395849e+01
4.299384882590213408e+01 3.571319940431268236e+01 1.787705647318446722e+01
4.530235915121647139e+01 3.570092775240053129e+01 1.713929992712397166e+01
4.674976433629471728e+01 3.291918943735939962e+01 2.232037668815343778e+01
4.944560280710228284e+01 3.072458347877767437e+01 2.666091822902294339e+01
4.944279471108922763e+01 3.105632381200233638e+01 3.060741482044894113e+01
4.951720606196905550e+01 2.977258437752749742e+01 3.273737197109041830e+01
4.937623544240898354e+01 3.108380165562138586e+01 3.166691119345732730e+01
5.132204630825898306e+01 3.140073639310795528e+01 2.841766110410654278e+01
4.947200925123896553e+01 3.161759327873409475e+01 2.789949231433764965e+01
4.951739359391209661e+01 3.083732337927099110e+01 3.073981281147660738e+01
5.024945712659292951e+01 3.124613139712942811e+01 2.995437728223565799e+01
4.951321653979945836e+01 3.433819571055978059e+01 3.113262319162989300e+01
5.063653705955671569e+01 3.164808761881706900e+01 2.855517680652870638e+01
5.225559679725309081e+01 3.139166109510976810e+01 2.509588670072913530e+01
5.194282307799278442e+01 3.390010576189278169e+01 2.474991476705996973e+01
5.096049669446278330e+01 3.393867195086936306e+01 2.347339463597805675e+01
5.032026210911154607e+01 3.459195310170022708e+01 2.204724996182355312e+01
4.648154370267906899e+01 3.750308861976909469e+01 1.943098750050894097e+01
5.013065679673031383e+01 3.701899897529755634e+01 2.006436910445404820e+01
4.968450388455318034e+01 3.682967152061599592e+01 2.311164792432478521e+01
4.956815650657353700e+01 3.746732699638710784e+01 2.272959170776237414e+01
5.046763105882484979e+01 3.769012658350952449e+01 1.911205822947062671e+01
5.087597027927120763e+01 3.715219260430453119e+01 1.715177144138067433e+01
5.152297098782706541e+01 3.683690509278966374e+01 1.794428814324633237e+01
5.104325696729438278e+01 3.721932165371244139e+01 1.538313360311493483e+01
4.943460887612236832e+01 3.541409917243108652e+01 1.602370728850149106e+01
5.045424725477647598e+01 3.805751870353272892e+01 1.564700702235052887e+01
5.027019693565733149e+01 3.698082463686085219e+01 1.338541235234917437e+01
4.767878543131965330e+01 3.816846173456659130e+01 1.821491503536972090e+01
4.669245614358729313e+01 3.923649875289515165e+01 1.835472730673341246e+01
4.926922333557801181e+01 3.730223708965390017e+01 2.164801789168713952e+01
4.667055439199329925e+01 3.801932606576021811e+01 2.269062714798952385e+01
4.375414729268445768e+01 3.996507734835359571e+01 2.175255016661326835e+01
4.272795759810137639e+01 3.891854065125054518e+01 2.573994286589923064e+01
4.854426255134055879e+01 3.530302219011307585e+01 3.323136966547352245e+01
4.777570151609412363e+01 3.492333314477980366e+01 3.520630566429862540e+01
5.110695016408428870e+01 3.640520968251468759e+01 2.651348045192779779e+01
5.019019610723347569e+01 3.344823029313924678e+01 2.217068930418601980e+01
5.167228967216235702e+01 3.201103019412858686e+01 1.915881303916966161e+01
5.269969616180431871e+01 3.303868467499263772e+01 1.970243836445331809e+01
4.630127076070885295e+01 3.323131462348058562e+01 1.651308754440214344e+01
4.948992793593478723e+01 3.098099416042082410e+01 2.185152661578352351e+01
4.025026509070671210e+01 3.076257075823951936e+01 1.940031870434566841e+01
4.412985363048096588e+01 3.078567108718374357e+01 2.312303834760713528e+01
4.218614014934799172e+01 3.142663270393963870e+01 2.655106669569227051e+01
4.298485317866614963e+01 3.323306969997567961e+01 2.605569055233549847e+01
3.406726268398065827e+01 3.686721729240151291e+01 2.298402851801439439e+01
3.512733618868523422e+01 3.254664578028868505e+01 2.375185912561950019e+01
3.437614781945142539e+01 3.170928979001449477e+01 2.104514798842903645e+01
3.904717858028594435e+01 3.070514915227463959e+01 2.398715771688996057e+01
3.586054363402028144e+01 3.299125998815809879e+01 2.038783290805914561e+01
3.468019680687299200e+01 3.483310408027917759e+01 2.281560141139311071e+01
4.196999347974206529e+01 2.940369530455354052e+01 2.652256944522831006e+01
3.966415520221307389e+01 2.847603263653236638e+01 2.773192693533266606e+01
4.417923021350759427e+01 2.843718607349562078e+01 2.812992186122659177e+01
4.568314593221977304e+01 2.893556584576725754e+01 3.127319083335788008e+01
4.471134810789947522e+01 2.892796053914399579e+01 3.558249453973228782e+01
4.264647937925313670e+01 2.957781525835360981e+01 3.937810003300682382e+01
4.271835435958764293e+01 2.840796649830074827e+01 4.125086387949633604e+01
4.389423257045268656e+01 2.884052200770437224e+01 4.110022509339094654e+01
4.415394910675557583e+01 2.873589857028377992e+01 4.118117141376507107e+01
4.494736060307872805e+01 2.738401507308758198e+01 4.198406029265880335e+01
4.451921379543068014e+01 2.759415178630358056e+01 4.299245701493887140e+01
4.458535797884319152e+01 2.841761976181805949e+01 4.388855850380809898e+01
4.310023018996136557e+01 2.784634956732244504e+01 4.399058811156955784e+01
4.110592519020442381e+01 2.785397990182678996e+01 4.395403848212812647e+01
3.772082191099574544e+01 2.919138982037073404e+01 4.011140263902655789e+01
3.905094559116562891e+01 2.869758136382507629e+01 4.105221612475470749e+01
3.958252670817684304e+01 2.916525767298783123e+01 4.172284483628054375e+01
4.037414066286672210e+01 2.802922319046860267e+01 4.243019190050879530e+01
3.930420400964555938e+01 2.370179728286730381e+01 4.373254162254929156e+01
3.838737020848690662e+01 2.289373896219822058e+01 4.540203395457901792e+01
3.670276277248117225e+01 2.161658423535395102e+01 4.504275475860127642e+01
3.623460501601385886e+01 2.026906006981966257e+01 4.543186661244806857e+01
3.843959789276115657e+01 2.013303923773976223e+01 4.445597999540634504e+01
3.758268009443700919e+01 2.046386620870940476e+01 4.363413307977767630e+01
3.600801266694747937e+01 2.309997139299848712e+01 4.502893632398559021e+01
3.367748756398891885e+01 2.722382993477516067e+01 4.385368759958824114e+01
3.421474562835464184e+01 2.620459353737890851e+01 4.383583518836781678e+01
3.376029208444852259e+01 2.929887843340159037e+01 4.356195345471979152e+01
3.544359676916974422e+01 2.565869781462891552e+01 4.261234061251283833e+01
3.570127593441506519e+01 2.254124226790791141e+01 4.047560290369415270e+01
3.601844840063812825e+01 2.147403267894946310e+01 3.933907328895532629e+01
3.549446287270311728e+01 2.133190642618659894e+01 3.888314637136456753e+01
3.496242047679983500e+01 2.205747814727762091e+01 3.887985158790964846e+01
3.428362155452176552e+01 2.176232767983914940e+01 4.032781451350024327e+01
3.504064503107530726e+01 2.138099839589571616e+01 4.080580120614467887e+01
3.683678812221734944e+01 2.320964971356676898e+01 4.207442219331391442e+01
3.782491409640264379e+01 2.188092391207080212e+01 4.149496926245018358e+01
3.897433397472185135e+01 2.374833619955948549e+01 4.120985894016013162e+01
4.077862894025759033e+01 2.426941986691371511e+01 4.038095924777592671e+01
4.013504321834786026e+01 2.393431462330150694e+01 4.132464480210345670e+01
3.888307220850963120e+01 2.468872388914220295e+01 4.219688012923326426e+01
3.776009753233702071e+01 2.368237811221711553e+01 4.153607396622630432e+01
3.777440116245599455e+01 2.306129912293789275e+01 4.053906778089260854e+01
3.863436169774592344e+01 2.467227766513172327e+01 4.145856839815090922e+01
3.740272665339267633e+01 2.536429525719145772e+01 4.255836749724443280e+01
3.743851551346039486e+01 2.380399016071032392e+01 4.427172763001095745e+01
3.769652993586834810e+01 2.234693553978860692e+01 4.475040322216677424e+01
3.754088412226978733e+01 2.371076158127679889e+01 4.508979742370063803e+01
3.747818881047475514e+01 2.430126266997576323e+01 4.692728133117481093e+01
3.810044518341693021e+01 2.488399451290257858e+01 4.711455849484016056e+01
3.725403367812329236e+01 2.492900358937275840e+01 4.483875274477667716e+01
3.769524263931198504e+01 2.383079329400739965e+01 4.433871575499350115e+01
3.739246421430716794e+01 2.408890446253409579e+01 4.397568909620726174e+01
3.910822970600676030e+01 2.484524138093914658e+01 4.379844355052400573e+01
3.952715841182603640e+01 2.474394063462050397e+01 4.296189779192648928e+01
4.279904315611922527e+01 2.222581573296944057e+01 3.794684055116884736e+01
4.305970839291226326e+01 1.835602824734171890e+01 3.471652688359749561e+01
4.336716942875749936e+01 1.822897075208703299e+01 3.406082276215395410e+01
4.420990039770062907e+01 1.891394797431274455e+01 3.301614540954712851e+01
4.328462435200291480e+01 1.853301878277479986e+01 3.445624269043412369e+01
4.568877455315942626e+01 1.783589098055662703e+01 3.428235995022867399e+01
4.467647458984110642e+01 1.903188366732912584e+01 3.458459372845499047e+01
4.449036238470481663e+01 2.143414093334095583e+01 3.534756381334951669e+01
4.464329575446667775e+01 2.074061715088455315e+01 3.439682636937430260e+01
4.565299851745208315e+01 2.331059210998721198e+01 3.167769915833768479e+01
4.600800739241861237e+01 2.407972879865087990e+01 3.172557563945237646e+01
4.577818352227976106e+01 2.516746228405520114e+01 3.221454254520513416e+01
4.748676032536580038e+01 2.817926997899166608e+01 2.849601133005049647e+01
4.522698041440956729e+01 2.737981652447490788e+01 3.002201388816115823e+01
4.382846454392068125e+01 3.061517789310637383e+01 2.923916548948200145e+01
4.248183200361975764e+01 3.467190421349034324e+01 2.511974599365585803e+01
4.171937386705062778e+01 3.259199073680035497e+01 2.790656448229931286e+01
4.277797554219694121e+01 2.917679806965830736e+01 3.192286436075773537e+01
4.325594252695420039e+01 2.731533590232356801e+01 3.707849876937748945e+01
4.267538578631899071e+01 2.683784121330000616e+01 3.941508556762920534e+01
4.231495702432438577e+01 2.677706461547925443e+01 4.193694835727323067e+01
4.153990737210987305e+01 2.638039355949281273e+01 4.343099432584410380e+01
4.029698715978712897e+01 2.612882062551184958e+01 4.531910300077659315e+01
4.082220806515810096e+01 2.637876509184962970e+01 4.498356562094276256e+01
4.003039951569330412e+01 2.650254654807056198e+01 4.621040210968029527e+01
3.887954765589284989e+01 2.534141152005719277e+01 4.697000982259811508e+01
3.851691744334104328e+01 2.302182800522807682e+01 4.764572111485923500e+01
3.850484161158841090e+01 2.145176184466394176e+01 4.893084744657637231e+01
3.845796033327631136e+01 2.150829949873838842e+01 5.067732218816777845e+01
3.952124784068340091e+01 2.200520338638065354e+01 5.176804233813713552e+01
3.964829390171735923e+01 2.240907526371808700e+01 5.135483959550049349e+01
3.703131337310365012e+01 2.198890853137010737e+01 5.210298445976695092e+01
3.555091562897597157e+01 1.944344270596213775e+01 5.237466257184545526e+01
3.084634644012223248e+01 1.847231228160513439e+01 5.252427765251364633e+01
2.559234171949186631e+01 1.458621924669498071e+01 4.897144980337443343e+01
2.642174345639285704e+01 1.744082211426272977e+01 4.286994624266504417e+01
2.576143006099345456e+01 1.551951526367915513e+01 4.216700965368954712e+01
2.463780507563959077e+01 1.501997815595052721e+01 4.570756901089929869e+01
2.467636298819996910e+01 1.557362689369028885e+01 4.741365123889205790e+01
2.572169999446465383e+01 1.175373993528527805e+01 4.829536807234721607e+01
2.573996173119031639e+01 1.103357209897598068e+01 4.957547116934689768e+01
2.542830551153299368e+01 1.296913643505236280e+01 4.927964968007860591e+01
2.625875417236463960e+01 1.325113829814270971e+01 4.785751712816635006e+01
2.779231351332989775e+01 1.261441111840690965e+01 4.580705894721844373e+01
2.815368080838415210e+01 1.215449318190583483e+01 4.749880451089391187e+01
2.713555240525267465e+01 1.183058923446188615e+01 4.951367696566674681e+01
2.743743514698136821e+01 1.251734614606023754e+01 4.847516498777967087e+01
2.683921550209950624e+01 1.098080919948314005e+01 5.237578714013758230e+01
2.633516566250229829e+01 9.874953268004784235e+00 5.580459331089009112e+01
2.582561607219748012e+01 8.486467710140120246e+00 5.833540987181137183e+01
2.476408165920787141e+01 7.128229192660456626e+00 5.950401179558662790e+01
2.453521265112592076e+01 7.059754283703460587e+00 6.149597970473921293e+01
2.343945055409290745e+01 4.550031269052602134e+00 6.293627023290688527e+01
2.323807915957117132e+01 7.369028006852640367e+00 6.397748928005644586e+01
2.465014823583801373e+01 9.160021986332472110e+00 6.323348528127066004e+01
2.534623953965393994e+01 1.131868663496206295e+01 6.289601955649239784e+01
2.628661750284080156e+01 1.262957878521003074e+01 6.201141733193292538e+01
2.699711406025751970e+01 1.472693007916143415e+01 6.119595920329113170e+01
2.623373774976906248e+01 1.463666535378751732e+01 5.683030814341159243e+01
2.667670663343372084e+01 1.582604010109088044e+01 5.604020283143920977e+01
2.661809519968575799e+01 1.515725882127566315e+01 5.667925199342181486e+01
2.607572413227533303e+01 1.421622706920707735e+01 5.775466554057606317e+01
2.470259599858722765e+01 1.418343229402187511e+01 5.767454661155097284e+01
2.564314310611937486e+01 1.325998055320236269e+01 6.057688827235438822e+01
2.641213659271309666e+01 1.399957757916644496e+01 5.968903039157643065e+01
3.012313054785847655e+01 1.842563611124991141e+01 5.843736451120320652e+01
3.051354576367956639e+01 1.856002178222814436e+01 5.848861082396093281e+01
3.249983531056633979e+01 2.073067180679000643e+01 5.830866766148919567e+01
3.394908173092170500e+01 2.310177766672597954e+01 5.799924423938215767e+01
3.377108678873091208e+01 2.396078402828506526e+01 5.796594706805764474e+01
3.464476456926294645e+01 2.205465099972312260e+01 5.735318587789825528e+01
3.369381400381693936e+01 2.161658899496777764e+01 5.836137025992812255e+01
3.227581328496040669e+01 2.125805672160763038e+01 5.888228213586335613e+01
2.974726032949605070e+01 1.914517990062711306e+01 6.004757908581026982e+01
2.605402575701642576e+01 1.740428044170195676e+01 6.131368796534494692e+01
2.309923694191788357e+01 1.596917856479586995e+01 6.234883281139075706e+01
2.415317806787058075e+01 1.837505802957372936e+01 6.109815123541289239e+01
2.412635615326022531e+01 1.988013829851979608e+01 6.360814585053349646e+01
2.242550214953593724e+01 1.983498138790876908e+01 6.389322137327780382e+01
2.115569208861924722e+01 2.004788513002189632e+01 6.194901334833376438e+01
2.041805668412535724e+01 2.076014687649983159e+01 5.936981040856719005e+01
1.891866787436918074e+01 2.287304001262902631e+01 5.278052287581607516e+01
1.633037826542669180e+01 2.292052988703468941e+01 5.337541161826118241e+01
1.415949280605026317e+01 2.294583287908433178e+01 5.405968418211313775e+01
1.447103200368897724e+01 2.330186660674867127e+01 5.428869574290065714e+01
1.195611021964913512e+01 2.077976684870410296e+01 5.485187187973050271e+01
7.661303641830859767e+00 2.071859881429947947e+01 5.282072335578521916e+01
7.379050022935642161e+00 2.110542427032284252e+01 5.164288008707832489e+01
7.010702261950945591e+00 2.100449472894555569e+01 5.048602019385981521e+01
9.210312530946191956e+00 2.250677040868917089e+01 4.943943606004481950e+01
9.518701519748656636e+00 2.297695268790310053e+01 4.940543668757791096e+01
9.626848016356714055e+00 2.461866506523289289e+01 4.897399497605033503e+01
5.149625623435198918e+00 2.465120434188555976e+01 4.717286410685898090e+01
0.000000000000000000e+00 2.655750212894602669e+01 4.271009466952509825e+01
1.684315992969153963e-01 2.836732541219297232e+01 3.918921985019421328e+01
7.783584926953137639e-01 2.879713382388654708e+01 3.868374088491550822e+01
1.093556108443268116e+00 2.991075600887896258e+01 3.518346430676838565e+01
7.717576065065941293e+00 4.067083768618308426e+01 2.632732400858499844e+01
6.208656078502242437e+00 4.157942152559890303e+01 2.142457817158307876e+01
7.285613845798559751e+00 4.155016969886708722e+01 1.615360723956826305e+01
7.034664028440639427e+00 4.209345239219725698e+01 1.347935807207178804e+01
7.880074846328006366e+00 4.107117571005333190e+01 1.712003847261982159e+01
7.726997865436412205e+00 4.131183280072610842e+01 1.273835834349084983e+01
1.136334227619650861e+01 4.349276836564191484e+01 1.442330170235097597e+01
1.312365870878930174e+01 4.188879191600708651e+01 1.375803291014941543e+01
1.514924045034500111e+01 4.072578547590387643e+01 1.640517976836013503e+01
1.130008081030774036e+01 4.089376168980786019e+01 1.835627744915840154e+01
1.201342340703178735e+01 4.208529612194013225e+01 2.103032920515535054e+01
1.426305233343890322e+01 4.295994335048939661e+01 2.240850681483817652e+01
1.338042077268694108e+01 4.353563528011103756e+01 2.109967961904413158e+01
1.640196583325013080e+01 4.610147656174272157e+01 2.227071715478581382e+01
1.397422720637532123e+01 4.726116868155298079e+01 1.933575862547608892e+01
1.713924449673896433e+01 4.398759788944487781e+01 1.710737777872974164e+01
1.721729028567401798e+01 4.773615188490919792e+01 1.313449869702847295e+01
1.385797547256041540e+01 4.813998510366513983e+01 1.146102335086074753e+01
1.328508139939042643e+01 4.634337514291646443e+01 1.607773515389060393e+01
1.438650060800792652e+01 4.679124397471728258e+01 1.410340229989322047e+01
1.599768756794190594e+01 4.464232101553037069e+01 1.450580337858075985e+01
1.765391942511563528e+01 4.418834950747262980e+01 1.517380000639356119e+01
2.265276350531015481e+01 4.340192427932320385e+01 1.842727179739222265e+01
1.776150495822703235e+01 4.355801235063497501e+01 1.443123432701378661e+01
1.589160590333984224e+01 4.585843371276948943e+01 2.116681431250457024e+01
1.630670531941306578e+01 4.409770894553972909e+01 1.373763466697857005e+01
1.570483699414204359e+01 4.471368312817570967e+01 1.644349155363013892e+01
1.507247945619894836e+01 4.522070865209805390e+01 1.764412774225093372e+01
1.636551381817004014e+01 4.617260094344177190e+01 1.622915544198772864e+01
1.663402990264352610e+01 4.648956907233233693e+01 1.689781036777173995e+01
1.399458154605023630e+01 4.457279331955327706e+01 1.531286076419266884e+01
1.475366108684896993e+01 4.897704046048743010e+01 1.782035210793249647e+01
1.555505822791034021e+01 4.992842876174122324e+01 1.965145816431936865e+01
1.619322565084062404e+01 4.770964138336648830e+01 2.231268300243855052e+01
1.750496018486703420e+01 4.454897934219703615e+01 2.072255805570000931e+01
2.057122892987405649e+01 3.934718856615135252e+01 1.997782144024666451e+01
2.374533013330001552e+01 4.494677379255092831e+01 2.193351444748716617e+01
2.129773784552840965e+01 4.699079840593855550e+01 2.537644931710699936e+01
2.001613426639680071e+01 4.635888689455670431e+01 2.508641503797659311e+01
1.943047377359165395e+01 5.089399315985242822e+01 2.198718932385138913e+01
1.804987883039673235e+01 5.143572097418912392e+01 2.496459470747105769e+01
2.226340482951154343e+01 5.258420852962643011e+01 1.630950534053080148e+01
2.014033399333236929e+01 5.699595477597124216e+01 2.218030248600029353e+01
1.849432028762413438e+01 5.421910079686989548e+01 2.330723970833428638e+01
1.565124672359443458e+01 5.935474985534641945e+01 3.162575195957152374e+01
1.497569353670970216e+01 6.191367592443594958e+01 3.959718842399476557e+01
1.343630716820610793e+01 6.344840810469159464e+01 4.111234790520475713e+01
1.367194414328820606e+01 6.247098611922440625e+01 4.507153251648662717e+01
1.516400830717877035e+01 6.145757842619672573e+01 4.695984947409721855e+01
1.379724576650133194e+01 6.086390711080515104e+01 4.670576119983645924e+01
1.529468329256725845e+01 6.179261564617193159e+01 5.071300617041993775e+01
1.507146837104088810e+01 6.057342679367979343e+01 5.204597137130486573e+01
1.390169715100180525e+01 5.999216849861473833e+01 5.240842716906525567e+01
1.406227061908593257e+01 5.824550063108895870e+01 5.160681924543650467e+01
1.585138001008651187e+01 6.113107576533217724e+01 5.188962926276573029e+01
1.709759798185713109e+01 6.153871648602472533e+01 5.145195426792595583e+01
1.550939267430642587e+01 6.112593054349072474e+01 5.187447837881538959e+01
1.595305000045141064e+01 5.640792183496068191e+01 4.980836709324165668e+01
1.433781840236074423e+01 5.731648652144011180e+01 5.077872692459441595e+01
1.432731747038510584e+01 5.570779187242167296e+01 5.060062372227243088e+01
1.188911847975328762e+01 5.788928266064863237e+01 4.801251453255623147e+01
1.246053172356723238e+01 5.747628467535385255e+01 4.945825394525143537e+01
1.324295775509086326e+01 5.700996523122331894e+01 4.805457761993636723e+01
1.481265279823919556e+01 5.597603112921249391e+01 4.552244415956822365e+01
1.685875070291334055e+01 5.446433279271885652e+01 4.512862445541189516e+01
1.565240207908026804e+01 5.524074372853934989e+01 4.471297425324636521e+01
1.695072710551231410e+01 5.013768688490258540e+01 4.070947311124962198e+01
1.633862005230496806e+01 5.015184612985643042e+01 3.994038350714851759e+01
1.886457808914649092e+01 4.901879055650450567e+01 3.816193656044442406e+01
1.869640580508650274e+01 4.968839109457391601e+01 3.843550774098303435e+01
2.087099090859085848e+01 4.850339432655201932e+01 3.726563207415860290e+01
2.223931215605890799e+01 4.812675799214372319e+01 3.761432144741446137e+01
2.394405189405443224e+01 4.789912267960719561e+01 3.927839817805368483e+01
2.329599310780205812e+01 4.768789497359814789e+01 3.579533325252239706e+01
2.174528671237856869e+01 4.896617256687120801e+01 3.480541415614666079e+01
2.182603333499195486e+01 5.011676241870792836e+01 3.554447545887745008e+01
2.134894759236328454e+01 5.172988343587574889e+01 3.513240245633011227e+01
2.106062557505646993e+01 5.444560002226391759e+01 3.439390331057612116e+01
1.976213903468921274e+01 5.481756705848882660e+01 3.358115188535619211e+01
2.460606833784981262e+01 6.055589257128903569e+01 3.777014359195452187e+01
2.543032923222883923e+01 6.290637938985677380e+01 3.908987254075216100e+01
2.474487576928950361e+01 6.196955032046924572e+01 4.230109543513002279e+01
2.955438119590734658e+01 6.354968177631626247e+01 4.347448295400933915e+01
3.429314989883740594e+01 6.216321183946077866e+01 4.422928840507020709e+01
3.117957020922174394e+01 6.224353706040778178e+01 4.425290753726598325e+01
3.308509366415378850e+01 6.341101815927451923e+01 4.391202183012809712e+01
3.754646212786193615e+01 6.207956526844151313e+01 4.363277558568649539e+01
4.047161441464882614e+01 6.111596626744025684e+01 4.329693215031841191e+01
4.023509512954135658e+01 6.257127677234962704e+01 3.765874218635187987e+01
4.495666681217146987e+01 6.335477379261173780e+01 3.194925911181083222e+01
4.752128171631027698e+01 6.371762390053079628e+01 2.328796058334442165e+01
4.400164925421124451e+01 5.380286385290730777e+01 1.893534712836664369e+01
4.330432694467785382e+01 5.272595326089673762e+01 1.911990064936486178e+01
4.649762200924630662e+01 4.623676198450959163e+01 1.968099226835859028e+01
4.618398785570158793e+01 4.955975027927760834e+01 2.053522272020036965e+01
4.322389745416556650e+01 4.378287325642950378e+01 2.072377271562254464e+01
4.317810840368368730e+01 4.967958717168443172e+01 1.724407482864141627e+01
4.502189425328971595e+01 4.930290790992313532e+01 1.625420037363507575e+01
4.460533314727179999e+01 5.598812405983944274e+01 1.969278231598264384e+01
4.726435651918836101e+01 6.098364783367496500e+01 1.873331647633762032e+01
4.776923557118892205e+01 6.136863183836029378e+01 1.794224295193357221e+01
5.098865998497618079e+01 5.782809877407761689e+01 1.872033772066411572e+01
4.979547137456647476e+01 6.631756874650088207e+01 2.765111990411826071e+01
4.845866839314453500e+01 7.590090021331789671e+01 3.664057632376314899e+01
4.547905401915170387e+01 7.581231360870606295e+01 4.224181842719556812e+01
4.215746494365262009e+01 7.643259331907455589e+01 4.558706383859092170e+01
3.935337856438324877e+01 7.497300133037417424e+01 5.025770542209279057e+01
3.697318008314455540e+01 7.168576724492157837e+01 5.496076226599392811e+01
3.659891305011903029e+01 7.624407293519037410e+01 5.142243208938223376e+01
3.756375521852592669e+01 8.049430453160805143e+01 4.758105272906492189e+01
4.662454521088124437e+01 7.823886855637577753e+01 3.557120698473724474e+01
5.058259624897585383e+01 7.403017552802963053e+01 3.131524870141130990e+01
4.422758630523298962e+01 7.719524796918410914e+01 3.948220240689830263e+01
3.977189052457696050e+01 7.433853007058267792e+01 5.193755546770097453e+01
3.779702113038642608e+01 6.489760834266867562e+01 6.035307437653358420e+01
3.749365298118187440e+01 6.277100356968183803e+01 6.191273026149637104e+01
3.785667682369798825e+01 6.037604420091071233e+01 6.414054422474121964e+01
3.870005342204833454e+01 5.874955661265504148e+01 6.603589056728327478e+01
3.980620358137040427e+01 5.846983442570984835e+01 6.802275678353161936e+01
4.421103925935093315e+01 5.660657345616002090e+01 6.826340491138471123e+01
4.426947466683922983e+01 5.735837724406245286e+01 6.886943992816895843e+01
4.839511584870385974e+01 5.787341384366202135e+01 6.911383131303949767e+01
4.936416118460402913e+01 5.696677600641417882e+01 6.844563154911215008e+01
5.362105900862003693e+01 5.608445834062678159e+01 6.713733494381904165e+01
5.406989264019321695e+01 5.830921005039025573e+01 6.434893398822492827e+01
5.592514232539431163e+01 5.957034194617625644e+01 6.701493255968168228e+01
5.972744396808513301e+01 6.244815161625102462e+01 7.103213619404503731e+01
5.945319874179831743e+01 6.199132334718333226e+01 7.008922151577250759e+01
6.215196314008941414e+01 6.282899664020645503e+01 7.367092775855429920e+01
6.255062384915147078e+01 5.875122447255633773e+01 7.856647223480842968e+01
6.233738897055665973e+01 5.357217529309779991e+01 8.322465146206678810e+01
6.529594702405492512e+01 5.347520612596680678e+01 8.686620051966967537e+01
6.486485495478322605e+01 5.262780566185369224e+01 8.730166863915958686e+01
6.592627978913745324e+01 5.330246561877991240e+01 8.780769089551712625e+01
7.494263672491695161e+01 5.740509405759880224e+01 1.000000000000000142e+02
7.290281979802273327e+01 4.717213907150135555e+01 8.741269118418462369e+01
7.189644832566693822e+01 5.679512777679211410e+01 9.339855649535186899e+01
6.594631882153032620e+01 5.860797392920605375e+01 8.942101203435684909e+01
6.800676119297115463e+01 6.079570525610291298e+01 9.023474756139719943e+01
6.865072009956894306e+01 6.098486280735116338e+01 8.063161139528205013e+01
