6.518816855788708153e+01 5.923047924829773336e+01 4.031982810402605821e+01
7.683480086547598376e+01 6.390111240622159983e+01 4.860691075485950563e+01
6.608065120860004527e+01 5.782461757131075331e+01 4.069496691030786195e+01
6.565349363053314846e+01 5.478323485315580399e+01 4.879542171488188984e+01
6.462803749589988911e+01 5.585477951303660404e+01 4.927209336790264160e+01
6.409968681016347603e+01 5.638946595309391085e+01 4.958383228313917357e+01
6.237530496740549779e+01 5.600239433177383575e+01 5.391423713360479297e+01
6.151801321154987079e+01 5.593055713226123515e+01 5.586785771356885277e+01
6.090512210713513497e+01 5.625152668453055327e+01 5.685730359715893201e+01
6.033652406367065879e+01 5.642512327708928410e+01 5.792503051009554582e+01
6.283598070747695630e+01 5.068291951945843721e+01 6.010928420663342564e+01
6.181578948849067245e+01 5.286819356563388794e+01 5.880388418163965980e+01
6.208313911339541846e+01 5.045987713298516297e+01 6.053888577409937710e+01
6.217138384076864099e+01 4.929446475864874344e+01 6.250112074446853683e+01
5.960170280034216006e+01 4.261709856562568177e+01 6.417218877064819083e+01
6.064350183025204188e+01 4.250799413892180922e+01 6.282476312984911004e+01
6.048744558033704521e+01 4.520028162669973426e+01 6.032711060839340433e+01
6.001512865272859187e+01 4.728788559932392843e+01 6.000772997619031912e+01
5.613763799324385673e+01 4.047923674727320531e+01 6.342760846150347476e+01
5.770404527007367790e+01 4.415424856587223701e+01 6.172139982484104337e+01
5.327842413200822591e+01 4.104569851111656220e+01 6.522989049066387679e+01
4.929252819941231678e+01 3.953953319366299013e+01 6.977607963391233170e+01
4.635803496953544567e+01 3.789130619650175191e+01 7.514083217538265558e+01
4.596852868078629228e+01 3.536485778221933884e+01 7.487872918528631772e+01
4.594176483025297841e+01 3.367808952784635323e+01 7.485584552085980192e+01
4.509372540316034161e+01 3.079821076311740313e+01 7.603379524735355233e+01
4.436357061183074535e+01 2.685481902565411616e+01 7.742121921456359246e+01
4.288735726824916128e+01 2.121970148394519029e+01 7.951182243172779351e+01
4.050921424671169291e+01 1.382486146230747792e+01 8.268171892314680349e+01
4.199616266945589871e+01 1.267498453316081175e+01 7.999917846116044018e+01
4.370734724007018457e+01 1.921424131539730595e+01 7.762598200677113880e+01
4.946462532120936118e+01 2.047563298378194219e+01 7.071531307124047316e+01
5.552507397296791680e+01 2.297770064572826954e+01 6.631833735038367195e+01
5.915735881386051176e+01 2.721118623491891597e+01 6.346795997002815426e+01
5.982765771801434340e+01 3.228404559279093888e+01 6.230969605241125464e+01
6.064222013446847370e+01 3.750491864859927205e+01 6.111022690692203696e+01
6.064391427507435850e+01 4.148703874816049364e+01 6.057033406822733212e+01
6.253210352246704673e+01 3.346152143752755848e+01 6.158160777410770237e+01
6.280110700125579370e+01 3.206385164136264621e+01 6.154268899202529042e+01
6.679520881021130663e+01 2.618456988383119111e+01 6.307560768060781697e+01
6.981177523541583696e+01 2.641377098980015248e+01 6.566745608473496532e+01
6.435983844768460926e+01 3.079160314174279023e+01 6.421730216841848460e+01
7.021641330379996759e+01 2.641421707497908145e+01 6.716196017002465624e+01
6.430115349742457909e+01 2.704239487822764687e+01 6.497094910253389344e+01
6.296346373347081027e+01 2.967693923554049462e+01 6.433810718127681127e+01
5.622077513174978236e+01 3.051841433963633676e+01 6.596263095029435419e+01
6.056822100730556002e+01 3.054631558574529038e+01 5.952594591929013745e+01
6.466263701112255546e+01 3.507726797895194437e+01 5.890022725004896387e+01
6.979274675344358059e+01 3.645214979848341130e+01 5.332519585278736685e+01
6.974088032245651902e+01 4.384060858765433011e+01 5.045952405744601066e+01
7.015923633823192063e+01 4.459916630008671490e+01 4.648203142996326420e+01
7.011184664439197434e+01 4.456860147508471215e+01 3.921182743883921518e+01
7.020633748459681556e+01 4.727839429947675853e+01 4.042323322603346725e+01
6.958511543173567304e+01 5.176873509935282414e+01 4.048700337542985750e+01
7.009516581081190623e+01 4.979433019967338225e+01 4.609286582467387205e+01
6.870332475278122786e+01 5.080298245294207504e+01 5.307007350424851921e+01
6.617744426834232740e+01 5.132385457300108556e+01 5.622770288744521849e+01
6.481032833867568854e+01 5.277909063532538170e+01 5.716360073721525481e+01
6.618697386381596459e+01 5.148629813090443008e+01 5.793232898300809808e+01
6.802680058081438119e+01 5.073085692865247154e+01 5.908464442006727069e+01
6.828250846069069269e+01 5.097047494070251616e+01 5.897656220873752630e+01
7.100610916380395565e+01 5.108701953123393480e+01 6.101846901545238921e+01
7.530370915891197114e+01 5.286881065965786064e+01 6.094622110241527935e+01
7.657633003690709472e+01 5.457681028380235944e+01 6.035104438748858513e+01
7.833877301085087197e+01 5.428076462776440536e+01 6.269878677690572033e+01
7.832384822344228326e+01 5.498989358129676219e+01 6.425024948707208239e+01
7.743712705850086309e+01 5.473473792911214986e+01 6.368493519206256792e+01
7.642051523453608297e+01 5.513067092340068598e+01 6.681193674266398830e+01
7.263291272724428893e+01 5.385877524834707941e+01 6.981963139611104907e+01
6.970242703125771300e+01 5.322288970675294451e+01 7.000145633805328771e+01
7.106711663728796680e+01 5.415870070968836814e+01 6.838883423369588854e+01
7.191323010019748097e+01 5.503642727797316780e+01 6.574642261617323413e+01
7.228401706239975510e+01 5.593605566662256479e+01 6.326356923728022963e+01
7.210049292321058090e+01 5.648211621285704354e+01 6.220395318448758815e+01
7.199735866353314861e+01 5.680990277878132133e+01 6.259833480534160799e+01
7.426929766391555177e+01 5.679944450566523528e+01 6.338581115749497030e+01
7.915083427237780711e+01 5.911844322135299024e+01 6.794999766660214391e+01
7.845869666828212985e+01 6.120480990896434292e+01 7.007093422824796392e+01
8.419625675550993549e+01 6.457194294684755675e+01 6.602787854301969617e+01
8.969674568205847720e+01 6.553932788296728518e+01 6.151375781669735687e+01
9.148616907662140818e+01 6.629952148960512659e+01 5.856087862403676070e+01
8.860780904274366776e+01 6.451818440615534200e+01 5.494839188110957906e+01
8.523186584595130455e+01 6.866461526434130747e+01 5.048815991220202903e+01
8.469398436677383302e+01 6.730914630029680268e+01 4.768131984899932974e+01
8.218635328092372561e+01 6.580694452302260800e+01 4.274805727406745604e+01
8.163038731500658685e+01 6.237681052562367512e+01 4.818770489267316748e+01
7.796301764154627278e+01 6.016580868897039380e+01 5.552627464152870118e+01
7.394951856278164826e+01 5.859815358359521298e+01 6.004100732344612368e+01
7.797255539679458991e+01 5.837043865174180013e+01 5.925531650613673662e+01
7.966282550941251372e+01 6.100277653040132009e+01 6.184871779095433197e+01
7.890107545597248873e+01 6.307224077824746189e+01 5.923311820416775220e+01
7.833170525601143197e+01 6.489778298343070162e+01 6.099437748577341267e+01
7.752151672409586070e+01 7.235662582718008196e+01 6.316496577992338501e+01
7.759713505368023334e+01 7.428681302016769905e+01 6.291455064817542819e+01
7.737075291866368332e+01 7.599609260756091089e+01 6.018072490136162855e+01
7.791945781432413298e+01 7.603997113302521882e+01 6.340632311381015995e+01
7.889086478908878064e+01 7.636610194735391133e+01 6.685548106354922027e+01
8.089579156838361484e+01 7.717981221200265907e+01 7.054297365042074830e+01
8.001906990376210160e+01 7.751544419567886735e+01 7.813703780178987301e+01
7.967703020837352312e+01 8.128471289281993961e+01 8.247538654271349401e+01
8.088122187885458914e+01 8.132879002731479545e+01 8.420382238576912926e+01
8.306548405700351623e+01 8.154522751987117601e+01 8.435874201586437948e+01
8.426896519057579837e+01 8.433720053560908525e+01 8.933152380344589005e+01
8.310139339304254236e+01 8.287296290843931956e+01 9.344093092952903135e+01
7.822798896286714410e+01 8.395400348605748775e+01 9.817410229920172071e+01
7.351191392352168918e+01 8.372745701275623276e+01 1.000000000000000142e+02
7.231809006940871143e+01 8.736236404873540096e+01 9.941645164629069598e+01
7.059835999139048113e+01 8.805703008249001584e+01 9.772363870384204176e+01
6.910710332236594411e+01 8.877013067458221940e+01 9.516450306286445482e+01
6.612236446326383543e+01 9.152237311655159147e+01 9.655435239479359666e+01
6.606657151856664711e+01 9.059533319750363489e+01 9.486438159197049913e+01
6.454806206807842273e+01 8.851021252373715242e+01 9.473493644759660981e+01
6.379826803699013027e+01 8.753619457629619660e+01 9.241262733351408087e+01
6.294396357954483534e+01 8.639114974566746241e+01 8.969454721319993951e+01
6.161325587136003890e+01 8.433825237369330807e+01 8.841143803496227349e+01
6.135350856815043841e+01 8.314930773594707603e+01 8.673914673804883080e+01
6.049864458548636748e+01 8.220374385928106165e+01 8.556885552669008632e+01
5.964959453223332275e+01 7.902950211773787714e+01 8.319493706616518125e+01
5.876341847546905228e+01 7.732978080837776247e+01 8.136089560719233305e+01
5.772540036154713761e+01 7.599623801943171486e+01 8.044304334522746558e+01
5.594712778465744663e+01 7.324950137881677392e+01 7.837588683558554692e+01
5.535043011921981559e+01 7.240299825677827528e+01 7.801273084861604445e+01
5.408184918504043992e+01 7.005445095349716667e+01 7.552167589244002954e+01
5.232831702165384513e+01 7.118811778037262172e+01 7.616383689458828599e+01
4.826223861376654867e+01 7.202199108600237309e+01 7.746248661327554430e+01
4.536367815144480886e+01 7.218734411997566269e+01 7.840767995641812149e+01
4.241111807220502783e+01 7.237574416330996030e+01 7.958532608763206895e+01
3.991999286496683652e+01 7.260385013136504995e+01 8.041577841149182859e+01
3.595461183760558299e+01 7.225809069720564537e+01 8.045756657665430112e+01
3.321175692928653689e+01 7.198435943803318082e+01 8.055360994477227621e+01
3.074851376211633891e+01 7.337052512956330474e+01 8.155073357708094761e+01
2.975934554617940009e+01 7.355058672574570267e+01 7.952295175110066339e+01
3.112447355447575248e+01 6.831340350145650575e+01 7.548214191446591315e+01
2.553271508802676948e+01 6.764434876872981306e+01 7.635737251171892126e+01
2.579897578052602469e+01 6.701099554748859077e+01 7.503126906942208052e+01
2.257003339655393859e+01 6.963793816267087777e+01 7.231563307134209140e+01
1.844211150048776915e+01 7.072105428305992803e+01 7.293117144541707830e+01
1.911426012544261965e+01 7.322608026844680751e+01 7.128606609268844352e+01
1.633587498712870101e+01 7.657631645309839996e+01 7.057781427406139585e+01
1.664220914929349249e+01 7.505710873990625487e+01 6.383954695707955551e+01
2.164699600675999136e+01 8.245884036991932931e+01 5.464524435025683147e+01
2.127727144110324176e+01 7.888114299777232930e+01 4.955107452505103538e+01
2.138596305692325217e+01 7.346295068307078679e+01 4.572766792615069420e+01
2.339942168133124056e+01 6.624967176494132559e+01 4.297795054471949072e+01
2.765347987342894243e+01 6.946204565341051307e+01 4.126955868863802834e+01
2.822036205579608037e+01 6.856326865028073314e+01 3.957889583367923336e+01
3.569183404700061857e+01 6.976663875733409270e+01 3.814725636460983083e+01
4.047271345062834769e+01 6.599895461721098400e+01 3.644104093941963640e+01
4.194236883955121442e+01 6.713895359911494154e+01 2.927404685010336394e+01
4.545642862173907162e+01 6.788845856856669059e+01 2.483463119939327157e+01
5.315307776057971978e+01 6.565245832277751958e+01 2.870738554681499366e+01
5.193354975528043838e+01 6.696312718848099621e+01 2.201168365665422400e+01
6.199177813155537820e+01 6.455780038561803735e+01 2.117082705381531582e+01
6.144827312566862076e+01 6.668638690452991113e+01 1.150030130779724225e+01
6.291497478178144576e+01 6.778716900358354280e+01 6.022705537485171234e+00
5.778238332410270317e+01 6.996120223270413874e+01 5.393040873141920599e+00
6.089038247993466513e+01 8.026889567502173861e+01 3.395280003023839477e+00
6.330470534402432747e+01 6.872446435525141339e+01 2.390264586563859428e+00
6.340062239485681772e+01 6.737389929372739061e+01 7.814639693572228651e+00
6.781304486184824043e+01 7.649875411727106211e+01 4.271708270797556217e+00
6.677306426484662438e+01 8.123210928180624535e+01 0.000000000000000000e+00
6.225571014045507923e+01 8.521990611677614424e+01 7.964305097356966456e+00
6.136601572459747445e+01 8.170685925693659613e+01 2.176371254098709684e+01
5.568773423253957588e+01 7.292627477724924745e+01 3.242009019592475738e+01
5.257598497528110215e+01 8.655403883986392088e+01 3.544892543435947374e+01
5.196447026574853112e+01 9.131698600004078514e+01 3.985820539536101847e+01
5.264657849426316005e+01 8.740725168598412154e+01 4.220222483830588089e+01
5.339469703789366406e+01 8.662915575236543475e+01 4.292437643965510574e+01
5.445632309721050746e+01 8.327211218252351443e+01 4.479483349021219141e+01
5.566126486705524457e+01 8.106627002347404698e+01 4.649190812973408526e+01
